ply
format ascii 1.0
element vertex 1035
property float x
property float y
property float z
property uchar red
property uchar green
property uchar blue
end_header
38.156250 42.187500 -1923.826538 194 163 172
38.734375 42.187500 -1924.848633 188 158 167
39.312500 42.187500 -1925.335327 181 151 161
39.890625 42.187500 -1926.241821 176 147 158
40.468750 42.187500 -1928.070313 175 146 158
41.046875 42.187500 -1928.954956 171 143 156
-41.625000 41.625000 -1929.582153 104 87 89
-41.046875 41.625000 -1928.234985 110 92 94
-40.468750 41.625000 -1927.178345 113 92 95
-39.890625 41.625000 -1926.396606 114 93 97
-39.312500 41.625000 -1925.403198 122 101 106
-38.734375 41.625000 -1924.863281 134 111 117
-38.156250 41.625000 -1924.177246 146 122 128
-37.578125 41.625000 -1923.167603 154 128 136
-37.000000 41.625000 -1923.094360 157 129 138
-36.421875 41.625000 -1922.555908 159 132 140
-35.843750 41.625000 -1921.758179 157 129 137
-35.265625 41.625000 -1921.557861 150 121 131
-34.687500 41.625000 -1921.140869 141 114 123
-34.109375 41.625000 -1920.110474 137 109 118
-33.531250 41.625000 -1919.146240 138 110 120
-32.953125 41.625000 -1918.189819 139 112 121
-32.375000 41.625000 -1917.104004 141 113 122
-31.796875 41.625000 -1916.327393 144 114 125
-31.218750 41.625000 -1915.899780 147 117 128
-30.640625 41.625000 -1915.055542 149 119 130
-30.062500 41.625000 -1914.428345 150 118 131
-29.484375 41.625000 -1914.349731 150 118 132
-28.906250 41.625000 -1913.749268 149 117 132
-28.328125 41.625000 -1913.116333 151 119 134
-27.750000 41.625000 -1912.375488 154 121 137
-27.171875 41.625000 -1912.150635 155 122 139
-26.593750 41.625000 -1911.546631 155 121 139
-26.015625 41.625000 -1911.301514 155 120 139
-25.437500 41.625000 -1911.106567 157 120 142
-24.859375 41.625000 -1910.553223 161 124 146
-24.281250 41.625000 -1910.534180 168 132 154
-23.703125 41.625000 -1910.630005 172 137 160
-23.125000 41.625000 -1910.292236 174 137 162
-22.546875 41.625000 -1910.127808 174 138 162
-21.968750 41.625000 -1909.812378 176 141 165
-21.390625 41.625000 -1909.454102 180 145 168
-20.812500 41.625000 -1909.380859 183 148 172
-20.234375 41.625000 -1909.172607 184 148 173
-19.656250 41.625000 -1909.070313 182 146 172
-19.078125 41.625000 -1909.456177 178 143 168
-18.500000 41.625000 -1909.202759 175 140 165
-17.921875 41.625000 -1909.185913 172 137 162
-17.343750 41.625000 -1908.832397 169 134 159
-16.765625 41.625000 -1908.959351 166 132 157
-16.187500 41.625000 -1909.004272 165 131 155
-15.609375 41.625000 -1909.075562 164 130 155
-15.031250 41.625000 -1908.928955 162 127 153
-14.453125 41.625000 -1909.129761 160 125 151
-13.875000 41.625000 -1909.012451 158 124 149
-13.296875 41.625000 -1908.311401 156 124 148
-12.718750 41.625000 -1908.113647 154 123 146
-12.140625 41.625000 -1907.866943 151 120 142
-11.562500 41.625000 -1907.130127 146 116 136
-10.984375 41.625000 -1906.891968 137 107 125
-10.406250 41.625000 -1906.310425 130 99 115
-9.828125 41.625000 -1906.286743 128 97 111
-9.250000 41.625000 -1905.837280 128 98 112
-8.671875 41.625000 -1905.068726 128 99 114
-8.093750 41.625000 -1903.967041 132 101 115
-7.515625 41.625000 -1903.314209 137 105 117
-6.937500 41.625000 -1902.721313 144 110 122
-6.359375 41.625000 -1901.850830 148 112 124
-5.781250 41.625000 -1900.963379 151 114 125
-5.203125 41.625000 -1900.465820 154 115 127
-4.625000 41.625000 -1899.170898 154 115 127
-4.046875 41.625000 -1898.554443 154 115 127
-3.468750 41.625000 -1897.896484 156 117 129
-2.890625 41.625000 -1897.345703 162 124 136
-2.312500 41.625000 -1897.021606 168 132 143
-1.734375 41.625000 -1897.012085 179 145 156
-1.156250 41.625000 -1896.885010 188 153 165
-0.578125 41.625000 -1896.856567 192 157 169
0.000000 41.625000 -1896.805664 202 164 177
0.578125 41.625000 -1896.759277 210 170 183
1.156250 41.625000 -1896.706909 212 172 187
1.734375 41.625000 -1896.781006 213 174 189
2.312500 41.625000 -1896.770630 213 174 190
2.890625 41.625000 -1896.689575 214 173 190
3.468750 41.625000 -1896.614136 211 171 188
4.046875 41.625000 -1896.691162 208 167 185
4.625000 41.625000 -1897.056152 200 161 180
5.203125 41.625000 -1897.529419 194 156 174
5.781250 41.625000 -1898.423828 190 153 170
6.359375 41.625000 -1899.177368 188 151 169
6.937500 41.625000 -1900.236206 183 146 164
7.515625 41.625000 -1901.342285 178 141 159
8.093750 41.625000 -1902.324463 176 140 159
8.671875 41.625000 -1904.735107 179 142 163
9.250000 41.625000 -1905.854980 179 142 163
9.828125 41.625000 -1906.831177 176 139 160
10.406250 41.625000 -1907.462036 172 135 157
10.984375 41.625000 -1907.501221 168 132 155
11.562500 41.625000 -1907.948364 167 131 154
12.140625 41.625000 -1908.330200 165 131 154
12.718750 41.625000 -1908.416382 165 131 154
13.296875 41.625000 -1908.646973 166 132 154
13.875000 41.625000 -1908.992065 166 132 154
14.453125 41.625000 -1908.676758 167 131 154
15.031250 41.625000 -1908.878540 169 133 155
15.609375 41.625000 -1909.011475 171 135 158
16.187500 41.625000 -1908.655762 173 137 159
16.765625 41.625000 -1908.639160 173 138 161
17.343750 41.625000 -1908.992188 177 144 166
17.921875 41.625000 -1908.625488 184 151 174
18.500000 41.625000 -1908.659302 189 159 180
19.078125 41.625000 -1908.585083 192 163 184
19.656250 41.625000 -1908.659180 194 165 185
20.234375 41.625000 -1908.909668 198 167 188
20.812500 41.625000 -1909.334106 200 169 191
21.390625 41.625000 -1909.463867 199 167 190
21.968750 41.625000 -1909.710693 194 161 186
22.546875 41.625000 -1909.635986 190 157 182
23.125000 41.625000 -1909.596558 189 155 179
23.703125 41.625000 -1910.048340 190 156 181
24.281250 41.625000 -1910.414795 191 157 181
24.859375 41.625000 -1910.618896 190 156 181
25.437500 41.625000 -1910.751953 189 155 178
26.015625 41.625000 -1911.119019 186 151 174
26.593750 41.625000 -1911.574829 186 151 172
27.171875 41.625000 -1912.288208 186 150 171
27.750000 41.625000 -1912.719360 188 152 172
28.328125 41.625000 -1913.109741 188 152 172
28.906250 41.625000 -1913.740967 187 151 170
29.484375 41.625000 -1914.339355 192 157 175
30.062500 41.625000 -1914.610352 192 156 170
30.640625 41.625000 -1915.330444 193 157 171
31.218750 41.625000 -1915.871094 189 152 167
31.796875 41.625000 -1916.235107 188 151 166
32.375000 41.625000 -1917.497437 187 152 165
32.953125 41.625000 -1918.869263 190 156 169
33.531250 41.625000 -1919.537109 194 161 173
34.109375 41.625000 -1920.619873 195 162 174
34.687500 41.625000 -1920.814453 199 167 179
35.265625 41.625000 -1920.970581 201 169 181
35.843750 41.625000 -1921.225464 201 170 181
36.421875 41.625000 -1921.925537 200 170 180
37.000000 41.625000 -1922.327271 200 169 178
37.578125 41.625000 -1923.143921 197 167 176
38.156250 41.625000 -1923.760986 192 162 171
38.734375 41.625000 -1924.444458 187 156 166
39.312500 41.625000 -1925.512207 182 151 162
39.890625 41.625000 -1926.405762 179 148 160
40.468750 41.625000 -1928.029297 176 147 159
41.046875 41.625000 -1929.112305 172 145 156
-41.625000 41.062500 -1929.642456 108 90 94
-41.046875 41.062500 -1928.401855 113 92 98
-40.468750 41.062500 -1927.165405 114 92 97
-39.890625 41.062500 -1926.118408 116 94 99
-39.312500 41.062500 -1925.772949 124 102 108
-38.734375 41.062500 -1925.084473 136 112 119
-38.156250 41.062500 -1924.118652 148 123 130
-37.578125 41.062500 -1923.560059 154 129 136
-37.000000 41.062500 -1923.221802 156 131 137
-36.421875 41.062500 -1922.544312 157 133 139
-35.843750 41.062500 -1922.272949 154 130 136
-35.265625 41.062500 -1921.763672 149 124 131
-34.687500 41.062500 -1920.972046 143 119 127
-34.109375 41.062500 -1919.903442 141 115 124
-33.531250 41.062500 -1918.897705 143 116 125
-32.953125 41.062500 -1917.567505 144 117 126
-32.375000 41.062500 -1916.838989 146 117 127
-31.796875 41.062500 -1916.046509 147 118 128
-31.218750 41.062500 -1915.373901 149 121 130
-30.640625 41.062500 -1914.664917 153 124 134
-30.062500 41.062500 -1914.310547 154 124 136
-29.484375 41.062500 -1913.965698 155 124 136
-28.906250 41.062500 -1913.366455 156 123 136
-28.328125 41.062500 -1912.715698 157 124 137
-27.750000 41.062500 -1912.265015 159 127 139
-27.171875 41.062500 -1911.722412 160 128 141
-26.593750 41.062500 -1911.465454 162 128 143
-26.015625 41.062500 -1911.160156 162 128 144
-25.437500 41.062500 -1910.762695 165 128 147
-24.859375 41.062500 -1910.462036 168 131 151
-24.281250 41.062500 -1910.185547 172 137 156
-23.703125 41.062500 -1910.054932 176 140 161
-23.125000 41.062500 -1909.963257 178 141 163
-22.546875 41.062500 -1909.844360 177 142 163
-21.968750 41.062500 -1909.308105 177 144 164
-21.390625 41.062500 -1909.165649 180 146 168
-20.812500 41.062500 -1909.130127 181 147 170
-20.234375 41.062500 -1909.462402 180 146 168
-19.656250 41.062500 -1909.467285 177 143 166
-19.078125 41.062500 -1909.073242 175 140 163
-18.500000 41.062500 -1908.819214 174 138 162
-17.921875 41.062500 -1908.912109 173 137 160
-17.343750 41.062500 -1908.920654 172 135 158
-16.765625 41.062500 -1908.945190 170 133 156
-16.187500 41.062500 -1908.859985 169 133 156
-15.609375 41.062500 -1908.786011 169 132 156
-15.031250 41.062500 -1908.631592 168 130 156
-14.453125 41.062500 -1908.329346 167 129 155
-13.875000 41.062500 -1908.083740 166 129 154
-13.296875 41.062500 -1907.715210 165 130 153
-12.718750 41.062500 -1907.314575 162 128 150
-12.140625 41.062500 -1906.945435 155 121 142
-11.562500 41.062500 -1906.502075 145 113 133
-10.984375 41.062500 -1906.325439 138 105 123
-10.406250 41.062500 -1905.622314 133 101 117
-9.828125 41.062500 -1905.287231 133 101 114
-9.250000 41.062500 -1904.848511 132 101 115
-8.671875 41.062500 -1904.158325 132 100 115
-8.093750 41.062500 -1903.192627 135 103 117
-7.515625 41.062500 -1902.179565 140 107 119
-6.937500 41.062500 -1901.429199 146 111 122
-6.359375 41.062500 -1900.687012 148 112 123
-5.781250 41.062500 -1900.298340 148 113 123
-5.203125 41.062500 -1899.549561 148 113 124
-4.625000 41.062500 -1898.689819 150 113 125
-4.046875 41.062500 -1897.864258 150 113 126
-3.468750 41.062500 -1897.245483 152 116 128
-2.890625 41.062500 -1896.692505 158 122 134
-2.312500 41.062500 -1896.207031 169 132 144
-1.734375 41.062500 -1896.219482 179 145 156
-1.156250 41.062500 -1895.956177 191 156 167
-0.578125 41.062500 -1895.801392 199 163 175
0.000000 41.062500 -1895.802734 205 168 180
0.578125 41.062500 -1896.322510 212 172 186
1.156250 41.062500 -1896.280518 214 175 189
1.734375 41.062500 -1896.160034 214 175 190
2.312500 41.062500 -1896.036377 212 174 189
2.890625 41.062500 -1896.018188 213 174 190
3.468750 41.062500 -1895.995239 211 171 188
4.046875 41.062500 -1896.302246 206 166 184
4.625000 41.062500 -1896.595947 199 160 178
5.203125 41.062500 -1896.872681 192 155 172
5.781250 41.062500 -1897.557861 192 155 172
6.359375 41.062500 -1898.579468 192 155 172
6.937500 41.062500 -1899.879272 185 148 163
7.515625 41.062500 -1901.006226 177 141 156
8.093750 41.062500 -1902.406006 176 140 156
8.671875 41.062500 -1903.426758 180 145 162
9.250000 41.062500 -1904.506348 184 148 166
9.828125 41.062500 -1905.984985 181 146 165
10.406250 41.062500 -1906.519531 176 141 161
10.984375 41.062500 -1907.248413 172 137 157
11.562500 41.062500 -1907.481445 171 136 157
12.140625 41.062500 -1907.855469 170 135 158
12.718750 41.062500 -1907.939331 169 134 159
13.296875 41.062500 -1908.261108 171 135 162
13.875000 41.062500 -1908.507935 174 137 165
14.453125 41.062500 -1908.829834 176 138 165
15.031250 41.062500 -1908.982178 177 139 166
15.609375 41.062500 -1908.924072 180 142 169
16.187500 41.062500 -1908.768555 182 144 171
16.765625 41.062500 -1908.537354 182 145 171
17.343750 41.062500 -1908.404419 181 146 171
17.921875 41.062500 -1908.723022 183 148 172
18.500000 41.062500 -1908.598022 186 153 176
19.078125 41.062500 -1908.861572 190 159 181
19.656250 41.062500 -1908.969116 193 163 186
20.234375 41.062500 -1908.758545 197 167 190
20.812500 41.062500 -1908.990723 198 167 191
21.390625 41.062500 -1909.169800 197 165 189
21.968750 41.062500 -1909.412964 196 164 188
22.546875 41.062500 -1909.631958 194 162 186
23.125000 41.062500 -1909.916626 193 161 185
23.703125 41.062500 -1910.031250 193 160 184
24.281250 41.062500 -1909.975342 193 159 182
24.859375 41.062500 -1910.187134 193 160 182
25.437500 41.062500 -1910.812866 192 159 179
26.015625 41.062500 -1911.089355 192 159 179
26.593750 41.062500 -1911.530151 194 158 178
27.171875 41.062500 -1911.761597 194 158 178
27.750000 41.062500 -1912.486328 193 157 176
28.328125 41.062500 -1913.073608 194 157 176
28.906250 41.062500 -1913.365479 197 160 180
29.484375 41.062500 -1914.021240 201 164 183
30.062500 41.062500 -1914.463623 199 163 179
30.640625 41.062500 -1915.185303 200 164 180
31.218750 41.062500 -1915.715820 197 160 177
31.796875 41.062500 -1916.283813 198 161 177
32.375000 41.062500 -1917.231567 195 160 174
32.953125 41.062500 -1918.738647 196 162 176
33.531250 41.062500 -1919.624512 198 166 178
34.109375 41.062500 -1920.064575 198 165 178
34.687500 41.062500 -1920.577026 201 168 181
35.265625 41.062500 -1921.028442 201 170 181
35.843750 41.062500 -1921.370483 202 171 182
36.421875 41.062500 -1922.122681 200 170 180
37.000000 41.062500 -1922.528320 200 169 179
37.578125 41.062500 -1922.943481 197 167 176
38.156250 41.062500 -1923.657593 192 161 172
38.734375 41.062500 -1924.782959 187 155 167
39.312500 41.062500 -1925.196899 184 153 165
39.890625 41.062500 -1926.828979 180 149 162
40.468750 41.062500 -1927.951660 177 146 161
41.046875 41.062500 -1929.593750 174 144 158
-41.625000 40.500000 -1929.463745 108 90 92
-41.046875 40.500000 -1928.621338 111 92 95
-40.468750 40.500000 -1927.488892 113 92 96
-39.890625 40.500000 -1926.507813 117 95 100
-39.312500 40.500000 -1925.682495 126 104 109
-38.734375 40.500000 -1925.090088 137 114 120
-38.156250 40.500000 -1924.364258 149 125 132
-37.578125 40.500000 -1923.612305 156 131 138
-37.000000 40.500000 -1923.421997 159 133 141
-36.421875 40.500000 -1922.941772 161 135 143
-35.843750 40.500000 -1922.235840 160 132 141
-35.265625 40.500000 -1921.809204 153 125 135
-34.687500 40.500000 -1921.200439 148 121 130
-34.109375 40.500000 -1920.134644 145 117 127
-33.531250 40.500000 -1918.727539 145 117 127
-32.953125 40.500000 -1917.399780 147 119 129
-32.375000 40.500000 -1916.386230 148 120 131
-31.796875 40.500000 -1915.814087 149 121 132
-31.218750 40.500000 -1915.035034 150 123 133
-30.640625 40.500000 -1914.452881 152 125 136
-30.062500 40.500000 -1914.023438 155 126 138
-29.484375 40.500000 -1913.413940 155 129 140
-28.906250 40.500000 -1913.079590 156 129 141
-28.328125 40.500000 -1912.506226 158 129 142
-27.750000 40.500000 -1912.127930 159 130 143
-27.171875 40.500000 -1911.483521 160 131 145
-26.593750 40.500000 -1911.265747 162 133 147
-26.015625 40.500000 -1910.666870 164 133 148
-25.437500 40.500000 -1910.490845 167 135 151
-24.859375 40.500000 -1910.237061 170 138 154
-24.281250 40.500000 -1909.827148 172 140 156
-23.703125 40.500000 -1909.889160 175 142 158
-23.125000 40.500000 -1909.603882 177 143 160
-22.546875 40.500000 -1909.394287 178 144 162
-21.968750 40.500000 -1909.530396 179 145 163
-21.390625 40.500000 -1909.238037 179 145 164
-20.812500 40.500000 -1909.417603 180 145 165
-20.234375 40.500000 -1909.380493 180 145 166
-19.656250 40.500000 -1909.149292 179 144 165
-19.078125 40.500000 -1908.930542 177 142 164
-18.500000 40.500000 -1908.839355 176 140 162
-17.921875 40.500000 -1908.987671 175 139 161
-17.343750 40.500000 -1908.823853 174 137 160
-16.765625 40.500000 -1908.583618 173 137 159
-16.187500 40.500000 -1908.472656 173 137 159
-15.609375 40.500000 -1908.195557 172 138 160
-15.031250 40.500000 -1907.860352 171 137 159
-14.453125 40.500000 -1907.566162 169 136 157
-13.875000 40.500000 -1907.256714 166 133 154
-13.296875 40.500000 -1906.993286 162 130 151
-12.718750 40.500000 -1906.818604 158 126 146
-12.140625 40.500000 -1906.521118 151 119 138
-11.562500 40.500000 -1906.223022 142 111 128
-10.984375 40.500000 -1905.680054 137 105 121
-10.406250 40.500000 -1905.146240 137 104 118
-9.828125 40.500000 -1904.571167 137 104 117
-9.250000 40.500000 -1904.320923 136 104 117
-8.671875 40.500000 -1903.633301 135 103 117
-8.093750 40.500000 -1902.684326 138 105 118
-7.515625 40.500000 -1902.138062 142 108 120
-6.937500 40.500000 -1901.546021 146 111 122
-6.359375 40.500000 -1900.716431 146 111 122
-5.781250 40.500000 -1899.927490 147 111 123
-5.203125 40.500000 -1899.067627 147 110 123
-4.625000 40.500000 -1898.356689 147 111 123
-4.046875 40.500000 -1897.595093 148 112 123
-3.468750 40.500000 -1896.924927 151 115 127
-2.890625 40.500000 -1896.428345 157 122 134
-2.312500 40.500000 -1896.066284 167 132 144
-1.734375 40.500000 -1895.835938 178 144 156
-1.156250 40.500000 -1895.610474 190 155 167
-0.578125 40.500000 -1895.482910 198 162 174
0.000000 40.500000 -1895.526367 203 165 178
0.578125 40.500000 -1895.588745 206 169 183
1.156250 40.500000 -1895.455078 211 172 188
1.734375 40.500000 -1895.588989 213 175 192
2.312500 40.500000 -1895.383301 213 175 191
2.890625 40.500000 -1895.277954 213 173 190
3.468750 40.500000 -1895.626709 212 171 188
4.046875 40.500000 -1895.710449 207 167 184
4.625000 40.500000 -1896.003174 200 161 178
5.203125 40.500000 -1896.536865 194 156 173
5.781250 40.500000 -1897.093262 189 151 169
6.359375 40.500000 -1898.065674 188 150 167
6.937500 40.500000 -1899.337402 185 146 163
7.515625 40.500000 -1900.437256 179 140 157
8.093750 40.500000 -1901.674805 178 140 157
8.671875 40.500000 -1902.653442 181 145 162
9.250000 40.500000 -1903.735962 187 152 169
9.828125 40.500000 -1905.118774 188 153 171
10.406250 40.500000 -1906.030640 184 149 168
10.984375 40.500000 -1906.639648 179 143 164
11.562500 40.500000 -1907.071777 177 141 163
12.140625 40.500000 -1907.333374 176 140 163
12.718750 40.500000 -1907.490967 174 138 163
13.296875 40.500000 -1907.576782 173 137 163
13.875000 40.500000 -1907.892578 174 138 164
14.453125 40.500000 -1908.365479 179 142 167
15.031250 40.500000 -1908.318237 182 146 170
15.609375 40.500000 -1908.538086 184 148 172
16.187500 40.500000 -1908.690186 186 149 174
16.765625 40.500000 -1908.834839 187 151 176
17.343750 40.500000 -1908.690186 188 153 178
17.921875 40.500000 -1908.468140 190 155 179
18.500000 40.500000 -1908.714600 191 158 180
19.078125 40.500000 -1908.807739 191 160 181
19.656250 40.500000 -1908.747314 193 162 184
20.234375 40.500000 -1909.099976 195 163 185
20.812500 40.500000 -1909.219727 195 164 185
21.390625 40.500000 -1909.209351 194 163 184
21.968750 40.500000 -1909.105347 195 162 184
22.546875 40.500000 -1909.467407 196 162 185
23.125000 40.500000 -1909.826538 197 163 186
23.703125 40.500000 -1910.210205 197 163 186
24.281250 40.500000 -1910.022217 196 162 184
24.859375 40.500000 -1910.011719 195 161 183
25.437500 40.500000 -1910.284180 194 161 181
26.015625 40.500000 -1910.840332 195 163 182
26.593750 40.500000 -1911.197998 198 164 183
27.171875 40.500000 -1911.528687 199 166 184
27.750000 40.500000 -1912.258789 198 164 183
28.328125 40.500000 -1912.323242 199 165 184
28.906250 40.500000 -1912.932007 202 167 184
29.484375 40.500000 -1913.597900 204 169 186
30.062500 40.500000 -1914.179565 206 171 185
30.640625 40.500000 -1914.759766 204 169 184
31.218750 40.500000 -1915.490234 204 170 184
31.796875 40.500000 -1916.237915 204 169 184
32.375000 40.500000 -1917.259155 201 168 182
32.953125 40.500000 -1918.807129 203 169 184
33.531250 40.500000 -1919.810547 203 171 184
34.109375 40.500000 -1920.116089 203 171 184
34.687500 40.500000 -1920.634766 203 171 184
35.265625 40.500000 -1920.687622 203 171 183
35.843750 40.500000 -1921.547119 203 171 183
36.421875 40.500000 -1922.254639 203 172 183
37.000000 40.500000 -1922.667480 201 170 181
37.578125 40.500000 -1923.426270 198 167 178
38.156250 40.500000 -1923.968872 194 163 174
38.734375 40.500000 -1924.330078 189 158 169
39.312500 40.500000 -1925.569824 187 155 167
39.890625 40.500000 -1926.499634 181 150 163
40.468750 40.500000 -1927.546875 175 145 158
41.046875 40.500000 -1929.379272 168 139 153
-41.625000 39.937500 -1928.862183 110 91 96
-41.046875 39.937500 -1927.993042 113 93 99
-40.468750 39.937500 -1927.070190 113 92 98
-39.890625 39.937500 -1926.325073 117 96 101
-39.312500 39.937500 -1925.555786 127 105 111
-38.734375 39.937500 -1925.046509 138 115 122
-38.156250 39.937500 -1924.427246 150 127 133
-37.578125 39.937500 -1923.874390 155 131 138
-37.000000 39.937500 -1923.246704 156 133 139
-36.421875 39.937500 -1922.793823 158 135 142
-35.843750 39.937500 -1922.190308 157 133 141
-35.265625 39.937500 -1921.611450 153 127 137
-34.687500 39.937500 -1920.936768 149 122 133
-34.109375 39.937500 -1919.750000 148 121 131
-33.531250 39.937500 -1918.474121 149 121 130
-32.953125 39.937500 -1917.155151 150 122 133
-32.375000 39.937500 -1916.211060 151 124 135
-31.796875 39.937500 -1915.908203 152 125 137
-31.218750 39.937500 -1915.008179 154 127 139
-30.640625 39.937500 -1914.288818 155 128 140
-30.062500 39.937500 -1913.971313 158 130 142
-29.484375 39.937500 -1913.383057 161 132 145
-28.906250 39.937500 -1912.911255 161 133 146
-28.328125 39.937500 -1912.700562 162 133 145
-27.750000 39.937500 -1912.328979 163 133 145
-27.171875 39.937500 -1911.905151 164 134 147
-26.593750 39.937500 -1911.458984 166 137 149
-26.015625 39.937500 -1911.120239 168 138 152
-25.437500 39.937500 -1910.847046 171 140 153
-24.859375 39.937500 -1910.664063 171 141 154
-24.281250 39.937500 -1910.275635 172 141 155
-23.703125 39.937500 -1910.037109 173 142 155
-23.125000 39.937500 -1910.137207 175 144 156
-22.546875 39.937500 -1909.950317 178 146 159
-21.968750 39.937500 -1909.849487 181 148 162
-21.390625 39.937500 -1909.471069 182 149 164
-20.812500 39.937500 -1909.268311 182 149 165
-20.234375 39.937500 -1909.042236 181 147 165
-19.656250 39.937500 -1908.812744 180 145 166
-19.078125 39.937500 -1908.788452 180 144 165
-18.500000 39.937500 -1909.018433 178 142 163
-17.921875 39.937500 -1908.914307 177 141 162
-17.343750 39.937500 -1908.564575 177 141 163
-16.765625 39.937500 -1908.372192 178 142 164
-16.187500 39.937500 -1908.025391 179 142 165
-15.609375 39.937500 -1907.575928 179 142 167
-15.031250 39.937500 -1907.400513 178 141 166
-14.453125 39.937500 -1906.952271 176 140 165
-13.875000 39.937500 -1906.627441 173 138 162
-13.296875 39.937500 -1906.656128 164 131 153
-12.718750 39.937500 -1906.520874 155 122 143
-12.140625 39.937500 -1906.110962 148 114 134
-11.562500 39.937500 -1905.575439 141 108 126
-10.984375 39.937500 -1904.888062 138 106 121
-10.406250 39.937500 -1904.712769 138 106 119
-9.828125 39.937500 -1904.161743 139 106 119
-9.250000 39.937500 -1903.554810 139 106 119
-8.671875 39.937500 -1902.656128 139 106 119
-8.093750 39.937500 -1901.947144 140 106 119
-7.515625 39.937500 -1901.231567 143 108 120
-6.937500 39.937500 -1900.651489 144 109 120
-6.359375 39.937500 -1899.973999 143 109 120
-5.781250 39.937500 -1898.896118 145 111 123
-5.203125 39.937500 -1898.338623 147 113 124
-4.625000 39.937500 -1897.527710 147 112 123
-4.046875 39.937500 -1896.657959 147 111 122
-3.468750 39.937500 -1896.271240 149 113 125
-2.890625 39.937500 -1895.701050 157 120 133
-2.312500 39.937500 -1895.224365 167 130 142
-1.734375 39.937500 -1895.073242 179 143 155
-1.156250 39.937500 -1895.197754 190 154 166
-0.578125 39.937500 -1895.083740 199 162 175
0.000000 39.937500 -1894.915894 205 166 179
0.578125 39.937500 -1895.175171 209 167 181
1.156250 39.937500 -1894.929810 211 169 185
1.734375 39.937500 -1894.845215 213 171 188
2.312500 39.937500 -1894.735718 213 172 189
2.890625 39.937500 -1894.745605 212 172 188
3.468750 39.937500 -1894.917114 212 170 187
4.046875 39.937500 -1895.235474 208 167 184
4.625000 39.937500 -1895.470581 200 161 178
5.203125 39.937500 -1896.006958 193 155 172
5.781250 39.937500 -1896.630615 188 149 167
6.359375 39.937500 -1897.434204 186 148 165
6.937500 39.937500 -1898.387939 182 145 161
7.515625 39.937500 -1899.839844 178 140 155
8.093750 39.937500 -1900.975098 176 140 155
8.671875 39.937500 -1902.251343 179 144 158
9.250000 39.937500 -1902.910034 185 150 165
9.828125 39.937500 -1903.916016 191 155 172
10.406250 39.937500 -1905.167114 192 155 175
10.984375 39.937500 -1905.790894 189 152 173
11.562500 39.937500 -1906.422485 185 147 170
12.140625 39.937500 -1906.778076 184 145 169
12.718750 39.937500 -1906.957153 183 144 170
13.296875 39.937500 -1907.337036 182 143 170
13.875000 39.937500 -1907.714966 182 143 171
14.453125 39.937500 -1907.663452 184 146 173
15.031250 39.937500 -1907.990112 186 148 175
15.609375 39.937500 -1908.157959 188 149 177
16.187500 39.937500 -1908.257568 189 151 177
16.765625 39.937500 -1908.676025 192 155 180
17.343750 39.937500 -1908.604980 196 161 184
17.921875 39.937500 -1908.723511 199 165 186
18.500000 39.937500 -1908.432129 201 168 189
19.078125 39.937500 -1908.652344 202 170 191
19.656250 39.937500 -1908.842529 203 171 192
20.234375 39.937500 -1908.938110 203 170 192
20.812500 39.937500 -1909.249390 200 168 189
21.390625 39.937500 -1909.507080 196 165 185
21.968750 39.937500 -1909.512085 195 164 184
22.546875 39.937500 -1909.375122 196 165 185
23.125000 39.937500 -1909.704590 198 166 186
23.703125 39.937500 -1909.831177 198 165 186
24.281250 39.937500 -1910.083862 197 164 183
24.859375 39.937500 -1910.194458 196 164 183
25.437500 39.937500 -1910.291260 196 164 182
26.015625 39.937500 -1910.410522 198 165 183
26.593750 39.937500 -1910.656128 201 169 186
27.171875 39.937500 -1911.370850 204 170 189
27.750000 39.937500 -1911.772705 207 173 192
28.328125 39.937500 -1912.020508 206 173 192
28.906250 39.937500 -1912.813110 206 173 191
29.484375 39.937500 -1913.145142 207 173 190
30.062500 39.937500 -1914.132690 206 172 187
30.640625 39.937500 -1914.930054 205 171 186
31.218750 39.937500 -1915.280273 206 173 188
31.796875 39.937500 -1916.009644 208 174 189
32.375000 39.937500 -1917.453247 207 175 189
32.953125 39.937500 -1918.609131 207 175 189
33.531250 39.937500 -1919.543579 207 175 187
34.109375 39.937500 -1919.809937 205 174 186
34.687500 39.937500 -1920.391724 204 172 185
35.265625 39.937500 -1920.906006 205 173 185
35.843750 39.937500 -1921.535278 205 173 186
36.421875 39.937500 -1921.953613 205 174 186
37.000000 39.937500 -1922.221313 205 173 185
37.578125 39.937500 -1922.823120 202 170 182
38.156250 39.937500 -1923.793091 198 166 178
38.734375 39.937500 -1924.525513 193 161 174
39.312500 39.937500 -1925.564087 188 157 169
39.890625 39.937500 -1926.945801 181 151 163
40.468750 39.937500 -1927.980957 173 144 157
41.046875 39.937500 -1929.582031 164 136 149
-42.203125 39.375000 -1929.724854 102 85 87
-41.625000 39.375000 -1929.227661 111 92 97
-41.046875 39.375000 -1928.017944 114 93 100
-40.468750 39.375000 -1926.939819 113 92 99
-39.890625 39.375000 -1926.598022 118 96 103
-39.312500 39.375000 -1925.755005 128 105 112
-38.734375 39.375000 -1925.235840 139 116 123
-38.156250 39.375000 -1924.601318 150 127 134
-37.578125 39.375000 -1923.995239 155 131 139
-37.000000 39.375000 -1923.392090 157 134 142
-36.421875 39.375000 -1922.675415 158 134 142
-35.843750 39.375000 -1922.158447 157 131 140
-35.265625 39.375000 -1921.726318 153 128 138
-34.687500 39.375000 -1920.618286 150 125 136
-34.109375 39.375000 -1919.217041 151 125 135
-33.531250 39.375000 -1918.240234 153 125 135
-32.953125 39.375000 -1917.139771 154 126 137
-32.375000 39.375000 -1916.582642 154 127 139
-31.796875 39.375000 -1915.544434 155 129 140
-31.218750 39.375000 -1914.940674 157 130 143
-30.640625 39.375000 -1914.327637 159 131 144
-30.062500 39.375000 -1913.656372 161 132 145
-29.484375 39.375000 -1913.253296 162 134 147
-28.906250 39.375000 -1912.743774 162 135 147
-28.328125 39.375000 -1912.389526 162 135 147
-27.750000 39.375000 -1912.032104 162 135 147
-27.171875 39.375000 -1911.864014 164 136 148
-26.593750 39.375000 -1911.610718 167 139 152
-26.015625 39.375000 -1911.287964 171 142 155
-25.437500 39.375000 -1910.661499 173 143 155
-24.859375 39.375000 -1910.401245 173 143 155
-24.281250 39.375000 -1910.375000 174 143 156
-23.703125 39.375000 -1910.392578 176 144 157
-23.125000 39.375000 -1910.061890 178 146 159
-22.546875 39.375000 -1909.833862 182 149 162
-21.968750 39.375000 -1909.528809 185 151 165
-21.390625 39.375000 -1908.998901 187 153 168
-20.812500 39.375000 -1909.069092 187 153 169
-20.234375 39.375000 -1909.110474 185 152 169
-19.656250 39.375000 -1908.923462 185 150 169
-19.078125 39.375000 -1908.848511 184 149 169
-18.500000 39.375000 -1908.622803 182 147 168
-17.921875 39.375000 -1908.436279 180 145 166
-17.343750 39.375000 -1908.414185 180 144 167
-16.765625 39.375000 -1907.840698 181 145 169
-16.187500 39.375000 -1907.434326 181 146 169
-15.609375 39.375000 -1907.064697 181 146 169
-15.031250 39.375000 -1906.955688 179 145 168
-14.453125 39.375000 -1906.759033 176 143 166
-13.875000 39.375000 -1906.504761 172 139 160
-13.296875 39.375000 -1906.016968 163 130 150
-12.718750 39.375000 -1905.674561 153 120 139
-12.140625 39.375000 -1905.289185 146 113 132
-11.562500 39.375000 -1904.866211 143 109 126
-10.984375 39.375000 -1904.224487 142 108 123
-10.406250 39.375000 -1903.580078 142 107 122
-9.828125 39.375000 -1903.068970 141 107 121
-9.250000 39.375000 -1902.189331 141 108 121
-8.671875 39.375000 -1901.541016 141 107 120
-8.093750 39.375000 -1901.362549 141 107 119
-7.515625 39.375000 -1900.696533 142 108 119
-6.937500 39.375000 -1899.705688 142 108 118
-6.359375 39.375000 -1898.901855 143 109 118
-5.781250 39.375000 -1898.188721 144 111 121
-5.203125 39.375000 -1897.674927 146 113 123
-4.625000 39.375000 -1897.042969 147 113 123
-4.046875 39.375000 -1896.362305 146 113 123
-3.468750 39.375000 -1895.723511 147 113 124
-2.890625 39.375000 -1895.364258 154 119 130
-2.312500 39.375000 -1894.874756 165 129 141
-1.734375 39.375000 -1894.709717 179 143 155
-1.156250 39.375000 -1894.495728 192 155 167
-0.578125 39.375000 -1894.293823 199 161 175
0.000000 39.375000 -1894.164551 203 165 178
0.578125 39.375000 -1894.538086 204 166 181
1.156250 39.375000 -1894.392090 206 167 183
1.734375 39.375000 -1894.194092 208 169 184
2.312500 39.375000 -1894.156860 209 170 186
2.890625 39.375000 -1894.105103 210 170 187
3.468750 39.375000 -1894.365723 211 170 186
4.046875 39.375000 -1894.481934 207 167 183
4.625000 39.375000 -1894.703003 200 160 178
5.203125 39.375000 -1895.142090 193 154 171
5.781250 39.375000 -1896.119019 189 149 166
6.359375 39.375000 -1896.963867 189 149 165
6.937500 39.375000 -1897.911377 186 145 162
7.515625 39.375000 -1899.059204 181 141 157
8.093750 39.375000 -1900.307251 180 141 156
8.671875 39.375000 -1901.442017 182 145 159
9.250000 39.375000 -1902.405762 186 150 163
9.828125 39.375000 -1902.772827 190 155 170
10.406250 39.375000 -1904.168457 195 159 176
10.984375 39.375000 -1905.079102 196 159 178
11.562500 39.375000 -1905.699097 194 156 176
12.140625 39.375000 -1906.029907 191 153 174
12.718750 39.375000 -1906.972900 189 152 174
13.296875 39.375000 -1907.151978 187 150 174
13.875000 39.375000 -1907.367065 185 148 172
14.453125 39.375000 -1907.376587 183 147 170
15.031250 39.375000 -1908.126343 183 148 172
15.609375 39.375000 -1907.700806 186 151 175
16.187500 39.375000 -1908.042236 190 155 179
16.765625 39.375000 -1908.312500 195 160 184
17.343750 39.375000 -1908.433594 199 166 188
17.921875 39.375000 -1908.535156 202 170 191
18.500000 39.375000 -1908.686157 206 172 195
19.078125 39.375000 -1908.645386 207 173 196
19.656250 39.375000 -1908.339844 209 175 198
20.234375 39.375000 -1908.808472 210 176 200
20.812500 39.375000 -1909.127563 210 177 200
21.390625 39.375000 -1909.246582 210 177 199
21.968750 39.375000 -1909.429932 208 176 198
22.546875 39.375000 -1909.604248 205 172 195
23.125000 39.375000 -1909.643921 202 168 191
23.703125 39.375000 -1909.805542 200 166 188
24.281250 39.375000 -1909.788452 200 166 186
24.859375 39.375000 -1910.148682 200 167 186
25.437500 39.375000 -1910.361084 200 168 186
26.015625 39.375000 -1910.751465 201 168 186
26.593750 39.375000 -1911.146606 202 170 187
27.171875 39.375000 -1911.040527 204 172 189
27.750000 39.375000 -1911.343140 207 175 192
28.328125 39.375000 -1911.950928 207 175 191
28.906250 39.375000 -1912.560059 206 176 190
29.484375 39.375000 -1913.229980 206 176 190
30.062500 39.375000 -1913.835449 205 175 188
30.640625 39.375000 -1914.393921 205 175 188
31.218750 39.375000 -1915.213623 207 175 189
31.796875 39.375000 -1916.377563 207 176 191
32.375000 39.375000 -1917.625488 209 178 193
32.953125 39.375000 -1918.893799 209 178 192
33.531250 39.375000 -1919.295166 209 177 191
34.109375 39.375000 -1919.612915 206 175 188
34.687500 39.375000 -1920.215820 206 175 188
35.265625 39.375000 -1920.643311 206 175 188
35.843750 39.375000 -1921.238037 207 175 189
36.421875 39.375000 -1921.678955 208 176 189
37.000000 39.375000 -1922.176514 207 176 188
37.578125 39.375000 -1922.775391 206 174 186
38.156250 39.375000 -1923.660034 203 171 183
38.734375 39.375000 -1924.192017 197 165 177
39.312500 39.375000 -1925.375977 190 159 171
39.890625 39.375000 -1926.359131 183 151 164
40.468750 39.375000 -1927.825684 175 144 157
41.046875 39.375000 -1929.341553 166 136 149
-42.203125 38.812500 -1929.896729 102 87 91
-41.625000 38.812500 -1928.818359 110 92 98
-41.046875 38.812500 -1928.045776 113 93 100
-40.468750 38.812500 -1926.826904 113 93 99
-39.890625 38.812500 -1926.403442 118 97 103
-39.312500 38.812500 -1925.891602 128 106 112
-38.734375 38.812500 -1925.096069 139 116 123
-38.156250 38.812500 -1924.428589 151 128 135
-37.578125 38.812500 -1923.791016 155 131 139
-37.000000 38.812500 -1923.041626 156 132 141
-36.421875 38.812500 -1922.737061 155 131 140
-35.843750 38.812500 -1922.317749 155 131 141
-35.265625 38.812500 -1921.489380 154 130 140
-34.687500 38.812500 -1920.405518 153 128 139
-34.109375 38.812500 -1919.109497 153 128 138
-33.531250 38.812500 -1918.303101 155 130 140
-32.953125 38.812500 -1917.287598 156 131 142
-32.375000 38.812500 -1916.810303 157 131 143
-31.796875 38.812500 -1915.785400 157 131 143
-31.218750 38.812500 -1914.907593 159 132 145
-30.640625 38.812500 -1914.021118 162 134 147
-30.062500 38.812500 -1913.445557 163 135 148
-29.484375 38.812500 -1913.048218 165 136 151
-28.906250 38.812500 -1912.430786 164 136 150
-28.328125 38.812500 -1912.261353 166 136 150
-27.750000 38.812500 -1911.878540 166 136 151
-27.171875 38.812500 -1911.414795 168 138 152
-26.593750 38.812500 -1910.970947 171 141 155
-26.015625 38.812500 -1910.869751 174 144 157
-25.437500 38.812500 -1910.854858 174 145 157
-24.859375 38.812500 -1910.474243 174 145 158
-24.281250 38.812500 -1910.059692 175 146 159
-23.703125 38.812500 -1909.903320 178 147 160
-23.125000 38.812500 -1909.500977 180 148 162
-22.546875 38.812500 -1909.331787 181 149 164
-21.968750 38.812500 -1908.953979 184 152 166
-21.390625 38.812500 -1909.205688 187 155 170
-20.812500 38.812500 -1909.178101 188 156 172
-20.234375 38.812500 -1909.036011 188 155 172
-19.656250 38.812500 -1909.096558 187 154 172
-19.078125 38.812500 -1908.602295 185 151 172
-18.500000 38.812500 -1908.589844 183 149 170
-17.921875 38.812500 -1908.263428 181 148 170
-17.343750 38.812500 -1907.746826 182 149 171
-16.765625 38.812500 -1907.645386 184 151 174
-16.187500 38.812500 -1907.239624 184 151 175
-15.609375 38.812500 -1906.911865 184 150 175
-15.031250 38.812500 -1906.494995 183 149 173
-14.453125 38.812500 -1906.518433 178 144 168
-13.875000 38.812500 -1906.279541 170 136 160
-13.296875 38.812500 -1905.974976 162 129 151
-12.718750 38.812500 -1905.554443 156 122 143
-12.140625 38.812500 -1904.901855 151 117 136
-11.562500 38.812500 -1904.087891 147 113 130
-10.984375 38.812500 -1903.330811 145 111 126
-10.406250 38.812500 -1902.683716 144 110 123
-9.828125 38.812500 -1902.528198 143 109 122
-9.250000 38.812500 -1902.379639 143 109 122
-8.671875 38.812500 -1901.827026 142 108 121
-8.093750 38.812500 -1900.871826 142 107 119
-7.515625 38.812500 -1900.176758 143 107 118
-6.937500 38.812500 -1899.261230 142 106 116
-6.359375 38.812500 -1898.618408 143 107 117
-5.781250 38.812500 -1897.926392 143 109 118
-5.203125 38.812500 -1897.027466 144 111 119
-4.625000 38.812500 -1896.338989 146 112 120
-4.046875 38.812500 -1895.741333 146 113 122
-3.468750 38.812500 -1895.275879 148 113 123
-2.890625 38.812500 -1894.634155 154 118 129
-2.312500 38.812500 -1894.159058 164 128 139
-1.734375 38.812500 -1894.024048 179 141 152
-1.156250 38.812500 -1893.699585 191 151 164
-0.578125 38.812500 -1893.533081 200 159 172
0.000000 38.812500 -1893.651001 204 162 177
0.578125 38.812500 -1893.827881 208 166 180
1.156250 38.812500 -1893.816284 210 168 185
1.734375 38.812500 -1893.619873 210 168 185
2.312500 38.812500 -1893.538940 211 168 187
2.890625 38.812500 -1893.669067 212 168 186
3.468750 38.812500 -1893.705200 210 168 185
4.046875 38.812500 -1893.802856 207 165 183
4.625000 38.812500 -1894.046387 201 160 178
5.203125 38.812500 -1894.759766 194 154 171
5.781250 38.812500 -1895.713379 190 151 166
6.359375 38.812500 -1896.307495 189 151 166
6.937500 38.812500 -1897.550171 186 148 164
7.515625 38.812500 -1898.610107 182 144 159
8.093750 38.812500 -1899.654297 180 143 157
8.671875 38.812500 -1900.734131 182 144 157
9.250000 38.812500 -1901.449951 184 148 161
9.828125 38.812500 -1902.135620 188 153 166
10.406250 38.812500 -1903.226807 194 159 173
10.984375 38.812500 -1904.207764 200 164 180
11.562500 38.812500 -1904.587036 202 165 182
12.140625 38.812500 -1905.777344 200 162 181
12.718750 38.812500 -1906.350586 197 159 180
13.296875 38.812500 -1906.727905 194 157 178
13.875000 38.812500 -1906.961182 191 155 177
14.453125 38.812500 -1907.331299 189 154 176
15.031250 38.812500 -1907.780273 188 153 177
15.609375 38.812500 -1907.911499 189 154 178
16.187500 38.812500 -1907.890015 190 157 179
16.765625 38.812500 -1908.089355 194 160 183
17.343750 38.812500 -1908.088867 198 165 187
17.921875 38.812500 -1908.349365 201 169 192
18.500000 38.812500 -1908.474976 205 172 195
19.078125 38.812500 -1908.738525 206 174 198
19.656250 38.812500 -1908.708008 207 175 199
20.234375 38.812500 -1908.572998 209 177 201
20.812500 38.812500 -1908.392090 210 179 203
21.390625 38.812500 -1908.848511 212 181 203
21.968750 38.812500 -1909.236206 211 180 202
22.546875 38.812500 -1909.484741 209 177 200
23.125000 38.812500 -1909.787720 207 175 197
23.703125 38.812500 -1909.933594 205 173 196
24.281250 38.812500 -1909.845947 205 173 194
24.859375 38.812500 -1910.227417 206 174 194
25.437500 38.812500 -1910.262695 206 174 193
26.015625 38.812500 -1910.623779 205 172 192
26.593750 38.812500 -1910.816040 204 171 192
27.171875 38.812500 -1911.224243 207 174 193
27.750000 38.812500 -1911.692505 210 176 196
28.328125 38.812500 -1912.002319 211 177 195
28.906250 38.812500 -1912.738403 210 176 192
29.484375 38.812500 -1913.085571 207 175 188
30.062500 38.812500 -1913.701050 207 175 187
30.640625 38.812500 -1914.766235 208 176 190
31.218750 38.812500 -1915.283569 209 176 191
31.796875 38.812500 -1916.755371 209 177 191
32.375000 38.812500 -1917.699097 209 179 192
32.953125 38.812500 -1918.689697 210 180 193
33.531250 38.812500 -1919.250244 210 179 193
34.109375 38.812500 -1919.510742 209 178 191
34.687500 38.812500 -1919.895264 208 177 190
35.265625 38.812500 -1920.451538 208 177 190
35.843750 38.812500 -1921.055542 208 177 190
36.421875 38.812500 -1921.568237 209 178 191
37.000000 38.812500 -1922.018677 208 178 189
37.578125 38.812500 -1922.556396 206 176 188
38.156250 38.812500 -1923.289307 204 171 185
38.734375 38.812500 -1924.050537 198 164 178
39.312500 38.812500 -1924.990967 192 159 172
39.890625 38.812500 -1926.063965 186 154 167
40.468750 38.812500 -1927.581177 179 147 161
41.046875 38.812500 -1929.411011 172 140 154
-42.203125 38.250000 -1929.804810 106 89 94
-41.625000 38.250000 -1928.746948 111 93 99
-41.046875 38.250000 -1927.714966 111 92 98
-40.468750 38.250000 -1926.471436 113 92 99
-39.890625 38.250000 -1925.931885 116 95 101
-39.312500 38.250000 -1925.356323 127 104 111
-38.734375 38.250000 -1924.668823 137 114 122
-38.156250 38.250000 -1924.093872 150 126 134
-37.578125 38.250000 -1923.529541 156 132 141
-37.000000 38.250000 -1923.190796 155 132 140
-36.421875 38.250000 -1922.607178 156 132 141
-35.843750 38.250000 -1922.197388 156 132 140
-35.265625 38.250000 -1921.166016 155 132 141
-34.687500 38.250000 -1920.300659 155 132 142
-34.109375 38.250000 -1918.880615 156 131 140
-33.531250 38.250000 -1918.175659 158 133 143
-32.953125 38.250000 -1917.139282 158 133 144
-32.375000 38.250000 -1916.904785 159 134 145
-31.796875 38.250000 -1916.115967 159 134 146
-31.218750 38.250000 -1914.824341 160 134 147
-30.640625 38.250000 -1914.154419 164 136 149
-30.062500 38.250000 -1913.631104 165 138 150
-29.484375 38.250000 -1912.875122 167 139 151
-28.906250 38.250000 -1912.182373 168 139 151
-28.328125 38.250000 -1911.946289 170 140 153
-27.750000 38.250000 -1911.583008 170 140 154
-27.171875 38.250000 -1911.315674 171 142 155
-26.593750 38.250000 -1911.077881 173 144 157
-26.015625 38.250000 -1910.866455 175 146 160
-25.437500 38.250000 -1910.498047 177 147 161
-24.859375 38.250000 -1910.193970 177 147 161
-24.281250 38.250000 -1909.679443 178 148 163
-23.703125 38.250000 -1909.488647 181 150 165
-23.125000 38.250000 -1909.065674 183 151 167
-22.546875 38.250000 -1909.060425 184 153 169
-21.968750 38.250000 -1909.241455 186 156 171
-21.390625 38.250000 -1909.180664 188 157 174
-20.812500 38.250000 -1909.295044 187 156 174
-20.234375 38.250000 -1909.004150 185 153 171
-19.656250 38.250000 -1908.905762 184 151 170
-19.078125 38.250000 -1908.522339 184 150 171
-18.500000 38.250000 -1908.200562 183 149 170
-17.921875 38.250000 -1907.845947 182 149 170
-17.343750 38.250000 -1907.486084 183 150 172
-16.765625 38.250000 -1907.099121 186 153 176
-16.187500 38.250000 -1906.833618 187 154 177
-15.609375 38.250000 -1906.427002 184 152 174
-15.031250 38.250000 -1906.397461 179 148 170
-14.453125 38.250000 -1905.975464 172 141 163
-13.875000 38.250000 -1905.785156 165 133 154
-13.296875 38.250000 -1905.348633 159 127 147
-12.718750 38.250000 -1904.719116 157 123 143
-12.140625 38.250000 -1904.164917 155 121 140
-11.562500 38.250000 -1903.391357 152 117 133
-10.984375 38.250000 -1902.634644 148 113 128
-10.406250 38.250000 -1902.360352 146 112 126
-9.828125 38.250000 -1902.279053 145 111 125
-9.250000 38.250000 -1901.955933 144 109 123
-8.671875 38.250000 -1900.918579 142 107 120
-8.093750 38.250000 -1900.444702 142 106 118
-7.515625 38.250000 -1899.918457 143 107 118
-6.937500 38.250000 -1899.075195 142 106 117
-6.359375 38.250000 -1898.363037 142 107 117
-5.781250 38.250000 -1897.270142 143 108 117
-5.203125 38.250000 -1895.954224 144 109 117
-4.625000 38.250000 -1895.386230 145 110 118
-4.046875 38.250000 -1894.843140 146 111 120
-3.468750 38.250000 -1894.454468 150 115 124
-2.890625 38.250000 -1894.016357 156 120 130
-2.312500 38.250000 -1893.812866 165 129 139
-1.734375 38.250000 -1893.470825 176 139 149
-1.156250 38.250000 -1893.095703 187 148 161
-0.578125 38.250000 -1893.147339 195 154 168
0.000000 38.250000 -1893.073853 201 159 175
0.578125 38.250000 -1893.376587 205 164 179
1.156250 38.250000 -1893.070190 208 167 183
1.734375 38.250000 -1892.910400 210 169 185
2.312500 38.250000 -1892.933594 211 168 185
2.890625 38.250000 -1893.090088 210 166 184
3.468750 38.250000 -1893.085815 209 166 184
4.046875 38.250000 -1893.312500 207 164 182
4.625000 38.250000 -1893.591675 201 159 177
5.203125 38.250000 -1893.983887 196 156 173
5.781250 38.250000 -1894.637695 192 152 168
6.359375 38.250000 -1895.602783 191 151 167
6.937500 38.250000 -1896.785400 191 151 167
7.515625 38.250000 -1897.894531 187 147 163
8.093750 38.250000 -1898.913940 183 143 158
8.671875 38.250000 -1899.920044 181 142 156
9.250000 38.250000 -1900.510498 182 144 158
9.828125 38.250000 -1901.223633 187 150 164
10.406250 38.250000 -1902.248779 194 157 170
10.984375 38.250000 -1902.931152 200 164 178
11.562500 38.250000 -1904.026123 204 168 183
12.140625 38.250000 -1904.904419 203 168 183
12.718750 38.250000 -1905.718384 200 166 181
13.296875 38.250000 -1906.213501 197 163 180
13.875000 38.250000 -1906.103027 194 162 179
14.453125 38.250000 -1906.918701 194 162 181
15.031250 38.250000 -1907.373535 194 162 182
15.609375 38.250000 -1907.698853 193 162 182
16.187500 38.250000 -1907.869019 191 160 181
16.765625 38.250000 -1908.109131 191 160 181
17.343750 38.250000 -1908.046631 193 163 184
17.921875 38.250000 -1908.328369 197 167 189
18.500000 38.250000 -1908.323364 202 171 195
19.078125 38.250000 -1908.446777 207 175 199
19.656250 38.250000 -1908.772705 209 178 202
20.234375 38.250000 -1909.034302 210 180 204
20.812500 38.250000 -1908.921387 211 181 205
21.390625 38.250000 -1908.603027 211 182 205
21.968750 38.250000 -1908.799561 211 182 205
22.546875 38.250000 -1909.004150 211 180 205
23.125000 38.250000 -1909.391846 211 179 203
23.703125 38.250000 -1909.712280 211 179 202
24.281250 38.250000 -1909.944336 211 178 200
24.859375 38.250000 -1910.357300 209 178 199
25.437500 38.250000 -1910.478882 207 176 196
26.015625 38.250000 -1910.979736 205 174 194
26.593750 38.250000 -1910.846802 206 174 194
27.171875 38.250000 -1911.283325 207 176 195
27.750000 38.250000 -1911.532349 207 178 195
28.328125 38.250000 -1911.917358 208 177 194
28.906250 38.250000 -1912.296143 208 178 193
29.484375 38.250000 -1912.974243 208 178 191
30.062500 38.250000 -1913.498657 207 178 190
30.640625 38.250000 -1914.448242 208 178 191
31.218750 38.250000 -1915.670410 209 178 192
31.796875 38.250000 -1916.318115 209 179 192
32.375000 38.250000 -1917.705688 209 179 192
32.953125 38.250000 -1918.219238 211 180 193
33.531250 38.250000 -1919.177246 211 180 194
34.109375 38.250000 -1919.434448 210 179 193
34.687500 38.250000 -1919.883911 209 178 191
35.265625 38.250000 -1920.241699 209 178 191
35.843750 38.250000 -1920.481201 210 178 191
36.421875 38.250000 -1921.180054 212 179 192
37.000000 38.250000 -1921.502563 211 178 191
37.578125 38.250000 -1922.385986 207 174 187
38.156250 38.250000 -1922.975708 201 168 182
38.734375 38.250000 -1923.561157 196 163 176
39.312500 38.250000 -1924.796875 191 157 171
39.890625 38.250000 -1926.410034 187 154 167
40.468750 38.250000 -1927.457275 183 150 164
41.046875 38.250000 -1928.696167 177 145 158
-42.203125 37.687500 -1929.894409 110 89 94
-41.625000 37.687500 -1928.523804 115 93 99
-41.046875 37.687500 -1927.515015 115 91 99
-40.468750 37.687500 -1926.576782 116 92 100
-39.890625 37.687500 -1925.601440 116 93 100
-39.312500 37.687500 -1925.165283 124 101 108
-38.734375 37.687500 -1924.308350 136 112 119
-38.156250 37.687500 -1923.932007 146 123 130
-37.578125 37.687500 -1923.743408 155 131 139
-37.000000 37.687500 -1922.964966 154 132 140
-36.421875 37.687500 -1922.416992 155 131 139
-35.843750 37.687500 -1921.835815 157 132 140
-35.265625 37.687500 -1921.138062 156 133 142
-34.687500 37.687500 -1920.750244 157 134 144
-34.109375 37.687500 -1919.145508 158 133 145
-33.531250 37.687500 -1918.046631 160 135 147
-32.953125 37.687500 -1917.478638 160 134 147
-32.375000 37.687500 -1916.681396 161 135 147
