ply
format ascii 1.0
element vertex 1045
property float x
property float y
property float z
property uchar red
property uchar green
property uchar blue
end_header
25.437500 46.687500 -1910.137817 159 147 176
26.015625 46.687500 -1910.730713 128 117 146
26.593750 46.687500 -1911.253296 95 82 110
27.171875 46.687500 -1911.991577 65 52 79
27.750000 46.687500 -1911.414917 49 34 57
28.328125 46.687500 -1910.329468 49 34 55
30.062500 46.687500 -1912.169312 98 80 95
30.640625 46.687500 -1913.339966 110 92 105
31.218750 46.687500 -1914.773926 114 93 104
31.796875 46.687500 -1915.342529 115 93 103
32.375000 46.687500 -1915.253540 121 97 108
32.953125 46.687500 -1915.900391 133 108 119
33.531250 46.687500 -1916.702881 146 119 129
34.109375 46.687500 -1917.587524 154 125 135
34.687500 46.687500 -1918.035400 160 130 141
35.265625 46.687500 -1918.018921 164 135 145
35.843750 46.687500 -1918.417847 167 138 147
36.421875 46.687500 -1918.987549 169 140 149
37.000000 46.687500 -1919.543335 169 140 150
37.578125 46.687500 -1920.115112 170 141 151
38.156250 46.687500 -1920.437500 173 143 153
38.734375 46.687500 -1921.095947 174 142 153
39.312500 46.687500 -1921.900269 173 142 151
39.890625 46.687500 -1922.694458 174 143 151
40.468750 46.687500 -1923.555664 177 146 155
41.046875 46.687500 -1924.433472 179 147 158
41.625000 46.687500 -1924.810791 180 147 158
42.203125 46.687500 -1925.485718 178 144 156
42.781250 46.687500 -1927.336426 175 141 152
43.359375 46.687500 -1928.302612 171 137 148
-46.250000 46.125000 -1929.414673 128 99 109
-45.671875 46.125000 -1928.663086 131 102 110
-45.093750 46.125000 -1927.982300 134 106 111
-44.515625 46.125000 -1927.324829 136 107 111
-43.937500 46.125000 -1926.833984 139 109 112
-43.359375 46.125000 -1926.223999 140 110 113
-42.781250 46.125000 -1925.443115 140 110 114
-42.203125 46.125000 -1925.123047 140 110 114
-41.625000 46.125000 -1924.306274 139 109 112
-41.046875 46.125000 -1923.668579 137 107 110
-40.468750 46.125000 -1922.518188 137 107 110
-39.890625 46.125000 -1922.503418 140 108 114
-39.312500 46.125000 -1922.142578 141 107 116
-38.734375 46.125000 -1921.594482 138 105 114
-38.156250 46.125000 -1921.313721 133 102 110
-37.578125 46.125000 -1920.746948 132 102 111
-37.000000 46.125000 -1920.372681 126 97 107
-36.421875 46.125000 -1920.017578 117 89 99
-35.843750 46.125000 -1919.287720 107 80 89
-35.265625 46.125000 -1918.673462 98 71 81
-34.687500 46.125000 -1918.034058 93 65 76
-34.109375 46.125000 -1917.615479 89 63 75
-33.531250 46.125000 -1917.034302 82 59 71
-32.953125 46.125000 -1916.557983 76 53 65
-32.375000 46.125000 -1916.250610 67 42 55
-31.796875 46.125000 -1916.605469 56 32 45
-31.218750 46.125000 -1915.406250 49 26 40
-30.062500 46.125000 -1914.817993 70 49 68
-29.484375 46.125000 -1915.117432 89 69 87
-28.906250 46.125000 -1914.743042 92 73 93
-28.328125 46.125000 -1913.758301 92 74 94
-27.750000 46.125000 -1912.509521 96 82 102
-27.171875 46.125000 -1911.658691 114 100 121
-26.593750 46.125000 -1911.082397 132 122 141
-26.015625 46.125000 -1910.781860 140 131 149
-25.437500 46.125000 -1910.378418 129 122 140
-24.859375 46.125000 -1910.181030 109 101 119
-24.281250 46.125000 -1909.956543 79 74 89
-23.703125 46.125000 -1910.001587 61 55 70
-18.500000 46.125000 -1909.501953 65 57 78
-17.921875 46.125000 -1909.740112 97 89 111
-17.343750 46.125000 -1909.904297 145 140 167
-16.765625 46.125000 -1910.089844 191 188 214
-16.187500 46.125000 -1910.266602 206 206 233
-15.609375 46.125000 -1910.597534 208 208 236
-15.031250 46.125000 -1910.894043 199 200 227
-14.453125 46.125000 -1910.748901 174 173 200
-13.875000 46.125000 -1910.547607 162 155 183
-13.296875 46.125000 -1910.177002 152 143 170
-12.718750 46.125000 -1910.079468 135 119 145
-12.140625 46.125000 -1909.909424 113 96 122
-11.562500 46.125000 -1909.580566 92 68 92
-10.984375 46.125000 -1908.992188 90 65 90
-10.406250 46.125000 -1908.525024 107 77 103
-9.828125 46.125000 -1908.387329 120 91 117
-9.250000 46.125000 -1908.752075 115 88 113
-8.671875 46.125000 -1909.068726 105 78 103
-8.093750 46.125000 -1908.649658 100 71 92
-7.515625 46.125000 -1907.398926 100 71 91
-6.937500 46.125000 -1906.317627 109 80 99
-6.359375 46.125000 -1905.553955 117 89 108
-5.781250 46.125000 -1904.806274 127 97 112
-5.203125 46.125000 -1904.107178 133 103 118
-4.625000 46.125000 -1902.104492 144 112 125
-4.046875 46.125000 -1901.426514 158 126 139
-3.468750 46.125000 -1901.260742 172 138 150
-2.890625 46.125000 -1900.928467 185 151 162
-2.312500 46.125000 -1900.625977 193 157 171
-1.734375 46.125000 -1900.669189 202 165 180
-1.156250 46.125000 -1900.590088 210 173 188
-0.578125 46.125000 -1900.825806 214 178 192
0.000000 46.125000 -1900.451538 211 174 191
0.578125 46.125000 -1900.375488 207 170 187
1.156250 46.125000 -1900.478882 200 163 182
1.734375 46.125000 -1900.424438 196 158 178
2.312500 46.125000 -1900.796753 189 151 173
2.890625 46.125000 -1900.988647 178 141 162
3.468750 46.125000 -1900.868286 174 136 156
4.046875 46.125000 -1901.047729 165 128 148
4.625000 46.125000 -1902.899170 160 125 146
5.203125 46.125000 -1904.411133 153 118 139
5.781250 46.125000 -1905.670410 144 110 129
6.359375 46.125000 -1907.107422 142 107 125
6.937500 46.125000 -1909.389282 142 110 128
7.515625 46.125000 -1909.622803 142 110 128
8.093750 46.125000 -1909.441040 136 107 125
8.671875 46.125000 -1909.971191 142 114 132
9.250000 46.125000 -1909.674316 141 117 137
9.828125 46.125000 -1909.371582 151 127 148
10.406250 46.125000 -1910.041626 144 124 146
10.984375 46.125000 -1910.812988 134 114 137
11.562500 46.125000 -1911.289673 128 109 133
12.140625 46.125000 -1910.874878 127 109 133
12.718750 46.125000 -1911.082642 138 123 151
13.296875 46.125000 -1910.817505 154 141 168
13.875000 46.125000 -1910.485352 174 164 192
14.453125 46.125000 -1910.187500 180 171 199
15.031250 46.125000 -1909.791748 168 161 188
15.609375 46.125000 -1909.450073 144 137 165
16.187500 46.125000 -1909.483765 106 97 123
16.765625 46.125000 -1909.325684 78 69 95
17.343750 46.125000 -1908.866211 67 55 80
23.703125 46.125000 -1909.285522 136 132 159
24.281250 46.125000 -1909.425903 167 163 189
24.859375 46.125000 -1909.804932 179 175 201
25.437500 46.125000 -1910.189697 174 169 196
26.015625 46.125000 -1910.703247 138 134 160
26.593750 46.125000 -1911.238770 107 100 124
27.171875 46.125000 -1911.952637 79 71 94
27.750000 46.125000 -1913.311768 63 49 71
31.218750 46.125000 -1915.076538 114 87 104
31.796875 46.125000 -1915.940308 122 96 111
32.375000 46.125000 -1916.312622 128 100 113
32.953125 46.125000 -1916.628540 134 105 117
33.531250 46.125000 -1917.075195 143 113 126
34.109375 46.125000 -1917.503052 153 124 136
34.687500 46.125000 -1918.325562 162 131 144
35.265625 46.125000 -1918.838867 167 136 149
35.843750 46.125000 -1919.360962 169 138 151
36.421875 46.125000 -1919.596069 173 141 154
37.000000 46.125000 -1920.058472 176 144 156
37.578125 46.125000 -1920.562622 178 147 159
38.156250 46.125000 -1920.937988 179 146 160
38.734375 46.125000 -1921.342163 180 145 159
39.312500 46.125000 -1921.947266 179 145 159
39.890625 46.125000 -1922.447021 178 144 158
40.468750 46.125000 -1923.137817 180 144 157
41.046875 46.125000 -1923.697266 183 146 158
41.625000 46.125000 -1924.445190 187 149 162
42.203125 46.125000 -1925.552979 187 149 162
42.781250 46.125000 -1926.513550 181 144 157
43.359375 46.125000 -1927.790161 175 139 153
43.937500 46.125000 -1929.261475 170 135 149
-46.250000 45.562500 -1929.187744 122 99 102
-45.671875 45.562500 -1928.374634 128 102 108
-45.093750 45.562500 -1927.587036 135 106 114
-44.515625 45.562500 -1926.608276 136 108 115
-43.937500 45.562500 -1926.083618 138 110 115
-43.359375 45.562500 -1925.931763 138 112 115
-42.781250 45.562500 -1925.167969 137 112 114
-42.203125 45.562500 -1924.680298 139 112 116
-41.625000 45.562500 -1924.071777 140 112 117
-41.046875 45.562500 -1923.548340 138 110 114
-40.468750 45.562500 -1922.976807 135 107 110
-39.890625 45.562500 -1922.749512 136 108 112
-39.312500 45.562500 -1922.264893 138 110 115
-38.734375 45.562500 -1921.744995 139 111 118
-38.156250 45.562500 -1921.194824 137 110 119
-37.578125 45.562500 -1920.875122 136 108 118
-37.000000 45.562500 -1920.490967 131 100 110
-36.421875 45.562500 -1919.973755 121 91 101
-35.843750 45.562500 -1919.243530 109 80 90
-35.265625 45.562500 -1918.550659 99 72 81
-34.687500 45.562500 -1917.854858 92 66 74
-34.109375 45.562500 -1917.278442 85 58 68
-33.531250 45.562500 -1916.805298 78 51 62
-32.953125 45.562500 -1916.324707 67 43 53
-32.375000 45.562500 -1915.881470 58 39 48
-31.796875 45.562500 -1915.004150 58 38 47
-31.218750 45.562500 -1913.864380 62 40 50
-30.640625 45.562500 -1914.150024 66 45 53
-30.062500 45.562500 -1914.131104 71 52 56
-29.484375 45.562500 -1914.165405 80 61 65
-28.906250 45.562500 -1914.237305 85 67 71
-28.328125 45.562500 -1914.035645 95 77 83
-27.750000 45.562500 -1913.301025 106 88 99
-27.171875 45.562500 -1911.791992 115 99 110
-26.593750 45.562500 -1911.066650 127 116 129
-26.015625 45.562500 -1910.861572 134 124 138
-25.437500 45.562500 -1910.485474 134 127 143
-24.859375 45.562500 -1910.183716 125 118 134
-24.281250 45.562500 -1910.107788 98 91 107
-23.703125 45.562500 -1909.790283 74 66 82
-23.125000 45.562500 -1909.864014 63 53 70
-19.078125 45.562500 -1909.360962 63 46 71
-18.500000 45.562500 -1909.817261 85 72 99
-17.921875 45.562500 -1909.915771 128 115 143
-17.343750 45.562500 -1910.060303 181 173 205
-16.765625 45.562500 -1910.115723 208 203 234
-16.187500 45.562500 -1910.095337 204 207 235
-15.609375 45.562500 -1910.357788 198 200 229
-15.031250 45.562500 -1910.148193 181 186 214
-14.453125 45.562500 -1909.418701 152 155 184
-13.875000 45.562500 -1908.873779 132 130 158
-13.296875 45.562500 -1908.304199 118 115 143
-12.718750 45.562500 -1908.664795 113 105 130
-12.140625 45.562500 -1908.428589 102 93 118
-11.562500 45.562500 -1908.181396 89 76 100
-10.984375 45.562500 -1908.637085 83 69 93
-10.406250 45.562500 -1908.936157 93 79 98
-9.828125 45.562500 -1908.765137 102 87 106
-9.250000 45.562500 -1908.729248 105 86 104
-8.671875 45.562500 -1908.851563 100 80 98
-8.093750 45.562500 -1908.666260 97 77 91
-7.515625 45.562500 -1907.123779 98 77 91
-6.937500 45.562500 -1906.094360 105 82 94
-6.359375 45.562500 -1905.286865 108 85 97
-5.781250 45.562500 -1904.346680 117 94 102
-5.203125 45.562500 -1903.177734 129 105 113
-4.625000 45.562500 -1902.093506 146 118 127
-4.046875 45.562500 -1901.507935 162 133 143
-3.468750 45.562500 -1900.705933 175 142 153
-2.890625 45.562500 -1900.389282 187 153 165
-2.312500 45.562500 -1900.208252 198 162 174
-1.734375 45.562500 -1900.114868 203 167 179
-1.156250 45.562500 -1900.176514 208 174 188
-0.578125 45.562500 -1900.363037 210 176 190
0.000000 45.562500 -1900.408813 209 175 189
0.578125 45.562500 -1900.244995 208 174 188
1.156250 45.562500 -1900.281738 202 168 184
1.734375 45.562500 -1900.181396 196 162 178
2.312500 45.562500 -1900.551147 186 151 168
2.890625 45.562500 -1900.889893 179 144 161
3.468750 45.562500 -1900.685425 172 137 154
4.046875 45.562500 -1900.728516 166 132 148
4.625000 45.562500 -1902.159180 160 126 142
5.203125 45.562500 -1904.009644 150 116 133
5.781250 45.562500 -1905.753418 142 110 126
6.359375 45.562500 -1906.912964 135 103 119
6.937500 45.562500 -1908.906738 140 108 126
7.515625 45.562500 -1909.328247 144 111 129
8.093750 45.562500 -1909.547241 141 110 130
8.671875 45.562500 -1909.829224 134 103 123
9.250000 45.562500 -1909.280273 124 94 115
9.828125 45.562500 -1908.833740 126 96 117
10.406250 45.562500 -1908.867310 132 104 125
10.984375 45.562500 -1910.147705 137 109 130
11.562500 45.562500 -1909.601318 127 100 122
12.140625 45.562500 -1909.435303 121 95 117
12.718750 45.562500 -1909.577759 128 110 134
13.296875 45.562500 -1909.670410 148 131 155
13.875000 45.562500 -1909.932129 169 157 181
14.453125 45.562500 -1910.093384 178 167 191
15.031250 45.562500 -1909.873413 171 164 189
15.609375 45.562500 -1909.656494 157 151 175
16.187500 45.562500 -1909.390381 121 117 139
16.765625 45.562500 -1909.341919 86 82 104
17.343750 45.562500 -1909.041992 69 62 82
23.125000 45.562500 -1909.377197 127 122 144
23.703125 45.562500 -1909.349609 162 158 182
24.281250 45.562500 -1909.599121 173 170 195
24.859375 45.562500 -1909.959106 178 176 201
25.437500 45.562500 -1910.395142 168 168 193
26.015625 45.562500 -1910.675903 138 138 162
26.593750 45.562500 -1911.242676 111 106 129
27.171875 45.562500 -1912.079590 83 77 100
27.750000 45.562500 -1913.611694 68 58 78
28.328125 45.562500 -1914.733154 62 50 68
31.796875 45.562500 -1915.652710 116 94 104
32.375000 45.562500 -1915.925781 129 102 112
32.953125 45.562500 -1916.334717 135 106 116
33.531250 45.562500 -1916.936279 142 111 122
34.109375 45.562500 -1917.327148 151 120 131
34.687500 45.562500 -1918.169922 159 128 139
35.265625 45.562500 -1919.178833 165 135 145
35.843750 45.562500 -1919.288086 170 139 149
36.421875 45.562500 -1919.906860 173 142 152
37.000000 45.562500 -1920.102905 175 144 154
37.578125 45.562500 -1920.411621 177 145 156
38.156250 45.562500 -1921.076538 178 145 157
38.734375 45.562500 -1921.510010 179 145 157
39.312500 45.562500 -1922.125000 178 144 155
39.890625 45.562500 -1922.358887 180 146 155
40.468750 45.562500 -1923.196777 182 148 157
41.046875 45.562500 -1923.779053 184 151 160
41.625000 45.562500 -1924.785400 185 152 161
42.203125 45.562500 -1925.857544 182 148 157
42.781250 45.562500 -1926.915649 176 144 154
43.359375 45.562500 -1927.896606 171 140 150
43.937500 45.562500 -1929.289429 167 135 146
-46.828125 45.000000 -1929.817505 123 96 104
-46.250000 45.000000 -1928.753906 130 101 108
-45.671875 45.000000 -1927.866089 132 103 111
-45.093750 45.000000 -1927.219238 135 106 114
-44.515625 45.000000 -1926.208130 137 109 114
-43.937500 45.000000 -1925.638794 139 109 112
-43.359375 45.000000 -1925.798828 142 111 116
-42.781250 45.000000 -1925.336182 145 114 120
-42.203125 45.000000 -1924.796875 145 114 120
-41.625000 45.000000 -1924.191528 142 111 117
-41.046875 45.000000 -1923.613159 139 107 114
-40.468750 45.000000 -1923.181763 141 107 115
-39.890625 45.000000 -1922.814941 145 111 119
-39.312500 45.000000 -1922.557129 148 112 122
-38.734375 45.000000 -1922.166626 147 113 122
-38.156250 45.000000 -1921.604614 145 112 120
-37.578125 45.000000 -1921.145264 141 109 118
-37.000000 45.000000 -1920.659424 133 102 113
-36.421875 45.000000 -1920.161865 123 93 103
-35.843750 45.000000 -1919.403809 111 82 92
-35.265625 45.000000 -1918.494995 102 73 82
-34.687500 45.000000 -1917.708130 95 66 75
-34.109375 45.000000 -1917.190918 90 61 72
-33.531250 45.000000 -1916.622437 87 58 70
-32.953125 45.000000 -1916.313721 86 57 69
-32.375000 45.000000 -1915.290283 85 56 68
-31.796875 45.000000 -1915.059814 84 55 68
-31.218750 45.000000 -1914.145508 80 53 67
-30.640625 45.000000 -1913.647339 77 50 65
-30.062500 45.000000 -1913.673950 75 52 69
-29.484375 45.000000 -1913.983643 80 58 75
-28.906250 45.000000 -1913.880615 89 67 85
-28.328125 45.000000 -1913.839600 96 76 95
-27.750000 45.000000 -1913.156616 102 86 105
-27.171875 45.000000 -1912.462402 112 96 116
-26.593750 45.000000 -1911.567139 122 110 130
-26.015625 45.000000 -1910.961792 131 120 141
-25.437500 45.000000 -1910.555664 138 129 153
-24.859375 45.000000 -1910.389771 137 128 151
-24.281250 45.000000 -1910.137085 130 122 142
-23.703125 45.000000 -1909.922485 109 101 122
-23.125000 45.000000 -1909.855835 79 71 91
-22.546875 45.000000 -1909.616455 65 55 75
-19.656250 45.000000 -1909.742798 65 53 70
-19.078125 45.000000 -1909.555908 87 76 94
-18.500000 45.000000 -1909.791504 120 114 132
-17.921875 45.000000 -1910.230469 162 158 176
-17.343750 45.000000 -1910.151978 183 185 205
-16.765625 45.000000 -1909.964478 192 193 213
-16.187500 45.000000 -1909.969971 185 189 210
-15.609375 45.000000 -1909.992676 157 160 181
-15.031250 45.000000 -1909.553467 123 124 144
-14.453125 45.000000 -1909.062866 105 104 125
-13.875000 45.000000 -1908.706177 100 88 111
-13.296875 45.000000 -1908.586182 102 89 112
-12.718750 45.000000 -1909.102417 103 81 105
-12.140625 45.000000 -1909.625000 91 69 92
-11.562500 45.000000 -1909.566895 91 65 85
-10.984375 45.000000 -1909.389526 93 66 87
-10.406250 45.000000 -1909.635498 105 72 94
-9.828125 45.000000 -1908.988159 118 85 107
-9.250000 45.000000 -1908.639893 121 86 107
-8.671875 45.000000 -1908.241821 116 81 102
-8.093750 45.000000 -1907.776733 109 77 92
-7.515625 45.000000 -1906.257935 110 78 93
-6.937500 45.000000 -1905.378052 113 82 97
-6.359375 45.000000 -1904.420044 123 91 106
-5.781250 45.000000 -1903.617188 124 92 107
-5.203125 45.000000 -1902.434692 131 99 113
-4.625000 45.000000 -1902.196777 147 114 124
-4.046875 45.000000 -1901.244385 163 129 140
-3.468750 45.000000 -1900.726318 178 144 155
-2.890625 45.000000 -1900.280151 186 152 164
-2.312500 45.000000 -1899.997314 196 158 171
-1.734375 45.000000 -1899.830200 207 168 181
-1.156250 45.000000 -1899.592529 211 173 186
-0.578125 45.000000 -1899.917725 216 177 190
0.000000 45.000000 -1900.000000 212 175 190
0.578125 45.000000 -1899.896240 211 174 189
1.156250 45.000000 -1899.668091 206 170 184
1.734375 45.000000 -1899.858154 199 163 177
2.312500 45.000000 -1900.097534 191 154 171
2.890625 45.000000 -1900.203735 181 144 161
3.468750 45.000000 -1900.447144 173 139 155
4.046875 45.000000 -1900.463013 166 132 148
4.625000 45.000000 -1901.778320 160 125 144
5.203125 45.000000 -1903.839355 156 121 139
5.781250 45.000000 -1905.658936 148 114 130
6.359375 45.000000 -1907.209961 145 111 127
6.937500 45.000000 -1908.993164 145 113 128
7.515625 45.000000 -1909.225708 147 115 130
8.093750 45.000000 -1909.741333 145 112 130
8.671875 45.000000 -1909.469482 135 103 121
9.250000 45.000000 -1909.180542 121 89 111
9.828125 45.000000 -1908.944092 110 80 101
10.406250 45.000000 -1908.881104 106 81 98
10.984375 45.000000 -1908.141113 105 81 98
11.562500 45.000000 -1908.251465 107 83 102
12.140625 45.000000 -1907.851196 106 82 102
12.718750 45.000000 -1907.705444 99 81 102
13.296875 45.000000 -1908.024780 117 99 121
13.875000 45.000000 -1908.792603 137 122 149
14.453125 45.000000 -1909.455322 163 149 176
15.031250 45.000000 -1909.632324 180 165 197
15.609375 45.000000 -1909.447510 170 155 188
16.187500 45.000000 -1909.409790 158 144 178
16.765625 45.000000 -1909.628906 128 116 149
17.343750 45.000000 -1909.525269 90 79 111
17.921875 45.000000 -1909.760742 73 61 92
22.546875 45.000000 -1909.493286 122 115 133
23.125000 45.000000 -1909.569458 157 151 169
23.703125 45.000000 -1909.427612 180 175 193
24.281250 45.000000 -1909.777100 193 188 207
24.859375 45.000000 -1910.046387 183 177 198
25.437500 45.000000 -1910.534424 162 154 175
26.015625 45.000000 -1910.993286 139 131 152
26.593750 45.000000 -1911.488770 117 104 126
27.171875 45.000000 -1912.888428 101 86 109
27.750000 45.000000 -1913.518433 97 77 100
28.328125 45.000000 -1913.711182 95 73 97
28.906250 45.000000 -1914.099487 91 67 88
29.484375 45.000000 -1914.052368 85 59 79
31.218750 45.000000 -1914.667236 103 72 87
31.796875 45.000000 -1915.407959 115 83 98
32.375000 45.000000 -1916.170410 126 93 107
32.953125 45.000000 -1916.361450 136 102 116
33.531250 45.000000 -1916.855225 143 109 121
34.109375 45.000000 -1917.779541 151 118 128
34.687500 45.000000 -1918.437622 161 127 139
35.265625 45.000000 -1919.159912 168 134 145
35.843750 45.000000 -1919.709229 172 139 150
36.421875 45.000000 -1920.113037 176 142 153
37.000000 45.000000 -1920.343384 176 144 154
37.578125 45.000000 -1920.632813 178 147 157
38.156250 45.000000 -1921.197754 180 148 159
38.734375 45.000000 -1921.731079 181 148 159
39.312500 45.000000 -1922.255615 180 146 158
39.890625 45.000000 -1922.806030 180 147 158
40.468750 45.000000 -1923.361938 182 148 158
41.046875 45.000000 -1923.861084 186 150 160
41.625000 45.000000 -1924.215576 188 149 161
42.203125 45.000000 -1925.583984 187 146 160
42.781250 45.000000 -1926.256714 183 144 157
43.359375 45.000000 -1927.450317 176 140 152
43.937500 45.000000 -1929.102295 171 134 148
-46.828125 44.437500 -1929.816650 118 94 101
-46.250000 44.437500 -1928.791870 126 100 106
-45.671875 44.437500 -1927.763428 131 103 110
-45.093750 44.437500 -1926.951416 135 106 114
-44.515625 44.437500 -1926.219482 137 109 115
-43.937500 44.437500 -1925.788208 139 111 116
-43.359375 44.437500 -1925.201782 142 114 118
-42.781250 44.437500 -1925.056396 144 116 119
-42.203125 44.437500 -1924.800537 145 116 119
-41.625000 44.437500 -1924.303589 145 114 120
-41.046875 44.437500 -1923.695068 145 114 120
-40.468750 44.437500 -1923.154297 145 114 120
-39.890625 44.437500 -1922.728149 146 115 121
-39.312500 44.437500 -1922.349854 147 117 122
-38.734375 44.437500 -1921.907349 149 119 127
-38.156250 44.437500 -1921.513184 148 119 129
-37.578125 44.437500 -1921.149902 145 115 125
-37.000000 44.437500 -1920.617554 138 107 118
-36.421875 44.437500 -1919.800171 130 99 109
-35.843750 44.437500 -1919.241211 120 91 101
-35.265625 44.437500 -1918.408203 110 81 91
-34.687500 44.437500 -1917.623169 103 74 84
-34.109375 44.437500 -1916.895264 97 68 79
-33.531250 44.437500 -1916.333740 95 68 80
-32.953125 44.437500 -1916.390381 96 69 81
-32.375000 44.437500 -1916.516724 97 70 82
-31.796875 44.437500 -1915.932007 96 69 81
-31.218750 44.437500 -1915.149292 90 62 76
-30.640625 44.437500 -1913.759155 85 59 72
-30.062500 44.437500 -1913.337891 84 59 70
-29.484375 44.437500 -1913.327393 88 65 76
-28.906250 44.437500 -1913.297119 95 73 85
-28.328125 44.437500 -1913.276001 100 77 91
-27.750000 44.437500 -1913.173706 104 81 98
-27.171875 44.437500 -1912.845215 107 86 104
-26.593750 44.437500 -1912.157349 112 96 115
-26.015625 44.437500 -1911.367065 117 103 122
-25.437500 44.437500 -1910.886841 120 111 130
-24.859375 44.437500 -1910.796021 128 118 138
-24.281250 44.437500 -1910.618042 133 123 142
-23.703125 44.437500 -1910.204956 129 119 139
-23.125000 44.437500 -1909.854370 104 97 117
-22.546875 44.437500 -1909.855225 83 75 95
-21.968750 44.437500 -1909.743774 70 61 79
-20.234375 44.437500 -1909.633789 77 64 89
-19.656250 44.437500 -1909.799561 93 82 108
-19.078125 44.437500 -1909.996582 120 109 136
-18.500000 44.437500 -1910.420166 146 139 167
-17.921875 44.437500 -1910.187988 161 154 183
-17.343750 44.437500 -1910.015869 143 140 169
-16.765625 44.437500 -1910.153320 126 124 151
-16.187500 44.437500 -1910.419434 114 114 137
-15.609375 44.437500 -1910.197510 107 106 129
-15.031250 44.437500 -1910.088989 110 107 128
-14.453125 44.437500 -1910.046997 106 102 123
-13.875000 44.437500 -1909.936035 112 100 118
-13.296875 44.437500 -1909.882690 113 100 118
-12.718750 44.437500 -1909.679199 111 93 110
-12.140625 44.437500 -1910.013184 103 84 102
-11.562500 44.437500 -1909.793701 109 88 104
-10.984375 44.437500 -1909.598755 109 88 105
-10.406250 44.437500 -1909.336670 117 93 112
-9.828125 44.437500 -1909.045532 116 92 111
-9.250000 44.437500 -1908.266479 112 88 107
-8.671875 44.437500 -1907.632568 108 85 103
-8.093750 44.437500 -1907.075684 106 81 98
-7.515625 44.437500 -1905.308716 106 81 98
-6.937500 44.437500 -1904.474731 111 84 98
-6.359375 44.437500 -1904.106689 117 90 104
-5.781250 44.437500 -1902.706421 123 94 106
-5.203125 44.437500 -1901.254517 133 102 114
-4.625000 44.437500 -1901.402222 147 116 125
-4.046875 44.437500 -1900.712036 163 131 142
-3.468750 44.437500 -1900.308594 178 144 155
-2.890625 44.437500 -1899.858276 184 150 161
-2.312500 44.437500 -1899.666382 195 158 171
-1.734375 44.437500 -1899.500244 204 168 180
-1.156250 44.437500 -1899.235352 209 172 185
-0.578125 44.437500 -1899.710815 211 175 187
0.000000 44.437500 -1899.594604 209 172 187
0.578125 44.437500 -1899.265137 207 171 185
1.156250 44.437500 -1899.185181 201 167 183
1.734375 44.437500 -1899.224854 193 158 175
2.312500 44.437500 -1899.672852 187 153 169
2.890625 44.437500 -1899.734619 177 142 158
3.468750 44.437500 -1900.089600 171 136 153
4.046875 44.437500 -1900.432983 165 131 147
4.625000 44.437500 -1900.839355 157 126 143
5.203125 44.437500 -1903.245728 150 120 137
5.781250 44.437500 -1905.295898 144 114 129
6.359375 44.437500 -1906.785645 141 111 126
6.937500 44.437500 -1908.002686 142 116 131
7.515625 44.437500 -1908.951172 146 121 136
8.093750 44.437500 -1909.336426 142 116 131
8.671875 44.437500 -1909.487061 137 111 127
9.250000 44.437500 -1909.566162 130 103 119
9.828125 44.437500 -1909.625366 124 96 113
10.406250 44.437500 -1909.504395 118 91 108
10.984375 44.437500 -1909.331177 113 86 102
11.562500 44.437500 -1909.397949 114 86 103
12.140625 44.437500 -1909.955688 116 88 107
12.718750 44.437500 -1909.622559 113 89 110
13.296875 44.437500 -1909.618652 113 89 111
13.875000 44.437500 -1910.007935 114 94 115
14.453125 44.437500 -1910.400391 120 102 121
15.031250 44.437500 -1910.146851 137 125 148
15.609375 44.437500 -1909.686401 156 145 169
16.187500 44.437500 -1909.800659 164 157 182
16.765625 44.437500 -1909.819336 156 149 175
17.343750 44.437500 -1910.194458 120 116 139
17.921875 44.437500 -1909.766235 88 85 107
18.500000 44.437500 -1909.207520 76 69 91
21.968750 44.437500 -1909.347656 123 122 146
22.546875 44.437500 -1909.122314 160 161 186
23.125000 44.437500 -1909.326172 176 180 206
23.703125 44.437500 -1909.756836 174 179 205
24.281250 44.437500 -1910.310913 166 171 195
24.859375 44.437500 -1910.609985 146 151 174
25.437500 44.437500 -1910.651367 127 128 152
26.015625 44.437500 -1911.187256 113 113 138
26.593750 44.437500 -1912.037354 112 106 130
27.171875 44.437500 -1912.981445 111 103 126
27.750000 44.437500 -1913.127075 115 100 123
28.328125 44.437500 -1913.339844 109 91 113
28.906250 44.437500 -1913.197144 107 86 106
29.484375 44.437500 -1913.700195 106 82 101
30.062500 44.437500 -1913.817383 103 77 94
30.640625 44.437500 -1914.386475 103 78 93
31.218750 44.437500 -1914.792114 108 83 97
31.796875 44.437500 -1915.284668 115 90 103
32.375000 44.437500 -1915.863525 123 95 106
32.953125 44.437500 -1916.511719 130 101 110
33.531250 44.437500 -1917.075439 136 107 115
34.109375 44.437500 -1917.625732 145 116 123
34.687500 44.437500 -1918.326294 157 126 136
35.265625 44.437500 -1919.190186 167 136 147
35.843750 44.437500 -1920.089844 173 143 153
36.421875 44.437500 -1920.212402 177 147 157
37.000000 44.437500 -1920.443359 179 149 158
37.578125 44.437500 -1920.703613 180 149 157
38.156250 44.437500 -1921.401245 181 148 157
38.734375 44.437500 -1921.825439 183 149 158
39.312500 44.437500 -1921.992432 183 150 159
39.890625 44.437500 -1922.420166 183 152 160
40.468750 44.437500 -1923.141113 183 152 161
41.046875 44.437500 -1923.477173 182 151 159
41.625000 44.437500 -1924.376465 181 150 158
42.203125 44.437500 -1925.067017 180 149 158
42.781250 44.437500 -1926.112793 178 147 156
43.359375 44.437500 -1927.256470 174 142 153
43.937500 44.437500 -1928.507202 169 136 147
-46.828125 43.875000 -1929.600952 127 98 103
-46.250000 43.875000 -1928.373657 130 100 106
-45.671875 43.875000 -1927.854248 135 103 110
-45.093750 43.875000 -1926.580322 139 105 114
-44.515625 43.875000 -1926.032349 142 108 116
-43.937500 43.875000 -1925.491577 144 111 118
-43.359375 43.875000 -1924.860107 148 115 123
-42.781250 43.875000 -1924.639526 149 116 124
-42.203125 43.875000 -1924.400757 146 113 121
-41.625000 43.875000 -1924.173218 144 111 118
-41.046875 43.875000 -1923.551025 145 112 119
-40.468750 43.875000 -1923.289917 149 116 124
-39.890625 43.875000 -1922.819214 151 119 128
-39.312500 43.875000 -1922.202637 152 119 128
-38.734375 43.875000 -1921.785400 152 119 129
-38.156250 43.875000 -1921.445679 153 120 131
-37.578125 43.875000 -1921.142578 151 118 129
-37.000000 43.875000 -1920.744507 145 111 122
-36.421875 43.875000 -1919.779907 137 103 115
-35.843750 43.875000 -1919.047485 127 94 105
-35.265625 43.875000 -1918.158447 122 89 100
-34.687500 43.875000 -1917.602539 119 85 96
-34.109375 43.875000 -1916.971924 117 85 95
-33.531250 43.875000 -1916.146118 117 84 95
-32.953125 43.875000 -1916.243530 115 82 94
-32.375000 43.875000 -1916.051880 113 82 93
-31.796875 43.875000 -1915.705688 110 79 91
-31.218750 43.875000 -1915.439575 105 75 90
-30.640625 43.875000 -1914.051880 101 72 87
-30.062500 43.875000 -1913.156372 102 72 89
-29.484375 43.875000 -1912.545776 106 77 95
-28.906250 43.875000 -1912.523804 107 82 100
-28.328125 43.875000 -1912.512939 105 81 100
-27.750000 43.875000 -1912.790894 102 78 97
-27.171875 43.875000 -1912.590332 98 74 95
-26.593750 43.875000 -1912.382080 100 78 102
-26.015625 43.875000 -1911.928345 109 88 111
-25.437500 43.875000 -1911.531128 114 97 121
-24.859375 43.875000 -1911.150757 119 102 127
-24.281250 43.875000 -1910.864136 122 104 130
-23.703125 43.875000 -1910.929565 119 102 128
-23.125000 43.875000 -1910.210571 113 100 125
-22.546875 43.875000 -1910.156982 109 95 121
-21.968750 43.875000 -1909.887817 104 88 119
-21.390625 43.875000 -1909.782104 98 82 113
-20.812500 43.875000 -1910.128418 99 83 114
-20.234375 43.875000 -1910.222656 104 89 119
-19.656250 43.875000 -1909.870361 113 102 130
-19.078125 43.875000 -1910.308716 121 110 138
-18.500000 43.875000 -1910.495483 116 107 133
-17.921875 43.875000 -1910.227051 107 98 123
-17.343750 43.875000 -1910.279785 108 101 124
-16.765625 43.875000 -1910.290527 113 104 128
-16.187500 43.875000 -1909.974487 123 110 135
-15.609375 43.875000 -1909.943115 126 111 136
-15.031250 43.875000 -1909.821899 132 112 135
-14.453125 43.875000 -1909.817749 131 110 133
-13.875000 43.875000 -1909.841187 134 106 131
-13.296875 43.875000 -1909.860474 129 100 126
-12.718750 43.875000 -1909.736206 128 97 119
-12.140625 43.875000 -1909.862305 132 102 123
-11.562500 43.875000 -1909.636597 132 101 123
-10.984375 43.875000 -1909.352173 127 96 118
-10.406250 43.875000 -1909.036865 122 93 113
-9.828125 43.875000 -1908.301392 120 89 111
-9.250000 43.875000 -1907.762451 122 89 107
-8.671875 43.875000 -1907.047607 117 86 102
-8.093750 43.875000 -1906.270020 116 84 97
-7.515625 43.875000 -1904.968872 116 84 97
-6.937500 43.875000 -1904.205322 120 89 102
-6.359375 43.875000 -1902.936646 119 87 100
-5.781250 43.875000 -1901.977051 126 95 105
-5.203125 43.875000 -1901.348511 136 105 116
-4.625000 43.875000 -1900.703125 153 118 130
-4.046875 43.875000 -1900.312866 168 132 144
-3.468750 43.875000 -1899.602173 178 139 152
-2.890625 43.875000 -1899.621094 190 152 165
-2.312500 43.875000 -1899.328857 204 161 175
-1.734375 43.875000 -1899.303955 213 170 185
-1.156250 43.875000 -1898.963257 217 173 188
-0.578125 43.875000 -1899.216187 217 173 188
0.000000 43.875000 -1899.147461 209 170 183
0.578125 43.875000 -1899.151001 207 168 181
1.156250 43.875000 -1899.315063 206 165 181
1.734375 43.875000 -1899.395752 200 159 175
2.312500 43.875000 -1899.549438 193 152 168
2.890625 43.875000 -1899.609863 185 144 160
3.468750 43.875000 -1899.934937 178 139 154
4.046875 43.875000 -1900.304443 172 133 148
4.625000 43.875000 -1899.748291 163 126 143
5.203125 43.875000 -1902.582275 156 119 136
5.781250 43.875000 -1904.899902 154 117 132
6.359375 43.875000 -1906.338501 154 117 132
6.937500 43.875000 -1907.567505 155 118 133
7.515625 43.875000 -1908.589233 154 117 132
8.093750 43.875000 -1908.813110 154 117 134
8.671875 43.875000 -1909.501343 150 113 130
9.250000 43.875000 -1909.890869 149 109 131
9.828125 43.875000 -1910.089722 146 106 129
10.406250 43.875000 -1909.866211 138 103 120
10.984375 43.875000 -1909.791626 135 100 116
11.562500 43.875000 -1909.945435 132 98 116
12.140625 43.875000 -1909.915039 130 95 114
12.718750 43.875000 -1909.877197 126 97 118
13.296875 43.875000 -1909.964966 127 98 119
13.875000 43.875000 -1909.789429 124 99 122
14.453125 43.875000 -1909.632324 123 99 123
15.031250 43.875000 -1909.753906 119 96 124
15.609375 43.875000 -1909.476318 118 95 123
16.187500 43.875000 -1909.705688 124 106 136
16.765625 43.875000 -1909.744629 133 114 145
17.343750 43.875000 -1910.006348 132 117 148
17.921875 43.875000 -1910.421021 124 110 142
18.500000 43.875000 -1909.965088 110 98 129
19.078125 43.875000 -1909.831055 103 91 121
19.656250 43.875000 -1909.976563 101 92 120
20.234375 43.875000 -1909.703247 104 95 123
20.812500 43.875000 -1909.405640 120 113 138
21.390625 43.875000 -1909.518311 141 134 159
21.968750 43.875000 -1909.360962 157 149 175
22.546875 43.875000 -1909.297363 162 153 179
23.125000 43.875000 -1909.714233 158 151 174
23.703125 43.875000 -1910.339966 148 143 166
24.281250 43.875000 -1910.510376 139 130 155
24.859375 43.875000 -1910.748657 127 116 142
25.437500 43.875000 -1911.108398 121 105 131
26.015625 43.875000 -1911.572144 117 99 126
26.593750 43.875000 -1912.209106 123 100 126
27.171875 43.875000 -1912.476440 125 101 127
27.750000 43.875000 -1912.529053 128 104 127
28.328125 43.875000 -1912.692871 127 104 125
28.906250 43.875000 -1912.521362 127 99 119
29.484375 43.875000 -1912.878662 127 96 116
30.062500 43.875000 -1913.860840 128 95 113
30.640625 43.875000 -1914.842651 130 96 112
31.218750 43.875000 -1914.764526 130 95 110
31.796875 43.875000 -1914.935547 133 96 111
32.375000 43.875000 -1915.296997 135 99 113
32.953125 43.875000 -1915.961060 137 100 115
33.531250 43.875000 -1916.881958 141 105 118
34.109375 43.875000 -1917.690918 148 112 124
34.687500 43.875000 -1918.574097 158 122 133
35.265625 43.875000 -1919.154541 170 134 144
35.843750 43.875000 -1919.587036 180 144 155
36.421875 43.875000 -1919.889526 184 149 161
37.000000 43.875000 -1920.046997 188 152 164
37.578125 43.875000 -1920.611572 188 152 164
38.156250 43.875000 -1921.300415 189 153 165
38.734375 43.875000 -1921.447510 189 153 165
39.312500 43.875000 -1921.775879 189 153 165
39.890625 43.875000 -1922.480347 187 151 163
40.468750 43.875000 -1922.981689 186 150 161
41.046875 43.875000 -1923.446411 186 151 160
41.625000 43.875000 -1924.011841 187 152 162
42.203125 43.875000 -1925.363403 186 151 163
42.781250 43.875000 -1926.175049 183 146 159
43.359375 43.875000 -1927.132202 179 142 155
43.937500 43.875000 -1928.230957 173 138 150
44.515625 43.875000 -1929.469238 167 133 144
-46.828125 43.312500 -1929.074585 122 97 103
-46.250000 43.312500 -1927.992188 126 101 105
-45.671875 43.312500 -1927.756348 129 103 107
-45.093750 43.312500 -1926.613525 134 108 112
-44.515625 43.312500 -1925.986084 140 113 118
-43.937500 43.312500 -1925.321411 144 116 121
-43.359375 43.312500 -1924.634277 147 118 123
-42.781250 43.312500 -1924.481323 146 116 121
-42.203125 43.312500 -1923.908081 144 113 119
-41.625000 43.312500 -1923.576172 142 111 117
-41.046875 43.312500 -1923.396851 143 112 118
-40.468750 43.312500 -1923.087280 144 113 119
-39.890625 43.312500 -1922.561035 147 116 122
-39.312500 43.312500 -1922.136963 151 121 127
-38.734375 43.312500 -1921.682739 154 123 130
-38.156250 43.312500 -1921.290283 154 122 130
-37.578125 43.312500 -1920.916382 149 118 127
-37.000000 43.312500 -1920.443970 143 111 122
-36.421875 43.312500 -1919.837891 137 106 116
-35.843750 43.312500 -1919.191528 131 100 108
-35.265625 43.312500 -1918.031860 128 97 106
-34.687500 43.312500 -1916.973511 123 92 102
-34.109375 43.312500 -1916.350464 122 91 102
-33.531250 43.312500 -1916.015747 122 93 103
-32.953125 43.312500 -1915.686401 125 96 105
-32.375000 43.312500 -1915.413086 124 95 104
-31.796875 43.312500 -1915.486816 119 90 101
-31.218750 43.312500 -1915.273560 112 83 95
-30.640625 43.312500 -1914.327148 108 79 91
-30.062500 43.312500 -1913.538452 109 80 92
-29.484375 43.312500 -1912.851929 111 82 95
-28.906250 43.312500 -1912.076904 109 82 96
-28.328125 43.312500 -1912.015747 108 81 96
-27.750000 43.312500 -1912.206787 110 82 101
-27.171875 43.312500 -1912.069580 108 82 101
-26.593750 43.312500 -1911.794556 106 81 101
-26.015625 43.312500 -1911.751709 104 82 100
-25.437500 43.312500 -1911.939209 103 87 102
-24.859375 43.312500 -1911.611206 109 93 108
-24.281250 43.312500 -1911.510376 114 99 117
-23.703125 43.312500 -1911.290527 114 100 117
-23.125000 43.312500 -1911.522705 111 99 114
-22.546875 43.312500 -1910.909790 110 98 115
-21.968750 43.312500 -1910.582397 108 96 116
-21.390625 43.312500 -1910.566895 110 97 118
-20.812500 43.312500 -1910.398926 108 96 118
-20.234375 43.312500 -1909.482422 108 94 118
-19.656250 43.312500 -1910.820435 112 98 123
-19.078125 43.312500 -1910.454102 116 103 128
-18.500000 43.312500 -1910.383423 119 104 130
-17.921875 43.312500 -1909.928223 115 99 125
-17.343750 43.312500 -1909.611938 120 103 129
-16.765625 43.312500 -1909.590454 127 108 135
-16.187500 43.312500 -1909.623291 148 123 147
-15.609375 43.312500 -1909.561401 155 130 155
-15.031250 43.312500 -1909.695557 154 127 152
-14.453125 43.312500 -1909.761353 150 123 148
-13.875000 43.312500 -1909.825562 144 115 139
-13.296875 43.312500 -1909.851563 142 114 137
-12.718750 43.312500 -1909.842163 141 115 135
-12.140625 43.312500 -1909.529663 138 112 132
-11.562500 43.312500 -1909.258545 136 113 130
-10.984375 43.312500 -1908.730347 126 103 119
-10.406250 43.312500 -1908.240723 117 94 108
-9.828125 43.312500 -1907.861084 113 90 104
-9.250000 43.312500 -1907.316284 110 88 100
-8.671875 43.312500 -1906.776245 113 89 102
-8.093750 43.312500 -1905.408569 113 86 97
-7.515625 43.312500 -1904.149414 115 88 99
-6.937500 43.312500 -1902.916870 119 90 98
-6.359375 43.312500 -1902.442749 123 95 102
-5.781250 43.312500 -1901.652222 130 98 109
-5.203125 43.312500 -1900.874146 141 109 119
-4.625000 43.312500 -1900.384521 156 122 133
-4.046875 43.312500 -1899.508911 164 130 142
-3.468750 43.312500 -1898.940186 176 140 152
-2.890625 43.312500 -1898.891235 186 150 162
-2.312500 43.312500 -1898.808350 204 163 176
-1.734375 43.312500 -1898.629150 211 170 183
-1.156250 43.312500 -1898.741211 209 172 185
-0.578125 43.312500 -1898.829468 210 174 186
0.000000 43.312500 -1898.985352 204 167 182
0.578125 43.312500 -1898.671265 203 166 181
1.156250 43.312500 -1898.722534 199 163 177
1.734375 43.312500 -1898.873291 196 159 174
2.312500 43.312500 -1898.994507 191 155 169
2.890625 43.312500 -1899.099487 184 148 162
3.468750 43.312500 -1899.547241 178 142 156
4.046875 43.312500 -1900.037598 172 136 151
4.625000 43.312500 -1898.677979 163 130 146
5.203125 43.312500 -1902.184204 154 122 138
5.781250 43.312500 -1905.234863 149 120 132
6.359375 43.312500 -1905.789551 148 119 131
6.937500 43.312500 -1906.813354 150 122 137
7.515625 43.312500 -1907.805664 147 120 136
8.093750 43.312500 -1908.277222 146 118 137
8.671875 43.312500 -1909.144653 149 121 139
9.250000 43.312500 -1909.499756 149 121 139
9.828125 43.312500 -1909.797241 151 123 142
10.406250 43.312500 -1909.761597 144 115 135
10.984375 43.312500 -1909.815308 138 108 129
11.562500 43.312500 -1909.822876 132 104 125
12.140625 43.312500 -1909.485229 131 103 124
12.718750 43.312500 -1909.416260 133 106 126
13.296875 43.312500 -1909.319214 136 109 130
13.875000 43.312500 -1909.480957 135 110 127
14.453125 43.312500 -1909.332886 128 103 120
15.031250 43.312500 -1909.076050 118 96 114
15.609375 43.312500 -1909.111450 110 88 107
16.187500 43.312500 -1908.851196 114 94 116
16.765625 43.312500 -1908.858643 115 96 119
17.343750 43.312500 -1909.240845 111 94 118
17.921875 43.312500 -1909.678223 109 91 116
18.500000 43.312500 -1909.973511 115 98 125
19.078125 43.312500 -1910.070923 122 106 132
19.656250 43.312500 -1909.161987 132 118 145
20.234375 43.312500 -1909.200806 129 116 143
20.812500 43.312500 -1909.795044 128 116 144
21.390625 43.312500 -1910.171509 130 118 147
21.968750 43.312500 -1910.169922 131 122 150
22.546875 43.312500 -1910.345337 129 120 148
23.125000 43.312500 -1910.914429 127 119 143
23.703125 43.312500 -1910.885498 125 116 140
24.281250 43.312500 -1910.908081 121 113 135
24.859375 43.312500 -1911.203125 115 107 128
25.437500 43.312500 -1911.459595 115 104 126
26.015625 43.312500 -1911.852173 118 105 128
26.593750 43.312500 -1911.689941 125 107 132
27.171875 43.312500 -1911.895020 129 108 133
27.750000 43.312500 -1911.889282 130 107 132
28.328125 43.312500 -1911.895020 132 107 132
28.906250 43.312500 -1911.865723 137 110 132
29.484375 43.312500 -1912.608032 141 112 133
30.062500 43.312500 -1913.775513 142 113 132
30.640625 43.312500 -1914.188110 138 110 128
31.218750 43.312500 -1914.579956 136 107 124
31.796875 43.312500 -1914.843872 136 106 123
32.375000 43.312500 -1915.169312 139 108 123
32.953125 43.312500 -1915.685425 143 111 124
33.531250 43.312500 -1916.384033 147 114 127
34.109375 43.312500 -1917.388062 152 118 130
34.687500 43.312500 -1918.471069 160 127 136
35.265625 43.312500 -1919.165405 170 137 146
35.843750 43.312500 -1919.558716 179 148 154
36.421875 43.312500 -1920.072266 184 154 159
37.000000 43.312500 -1920.197266 187 155 162
37.578125 43.312500 -1920.791626 188 155 162
38.156250 43.312500 -1921.061035 187 154 163
38.734375 43.312500 -1921.483521 187 154 163
39.312500 43.312500 -1921.580811 184 152 161
39.890625 43.312500 -1922.156494 182 151 159
40.468750 43.312500 -1922.693359 181 150 159
41.046875 43.312500 -1922.998291 182 151 161
41.625000 43.312500 -1923.847900 183 151 161
42.203125 43.312500 -1925.151611 184 150 161
42.781250 43.312500 -1925.866333 181 147 159
43.359375 43.312500 -1926.972900 178 144 155
43.937500 43.312500 -1927.829102 175 141 152
44.515625 43.312500 -1929.475708 168 134 146
-47.406250 42.750000 -1929.576294 123 94 102
-46.828125 42.750000 -1928.459106 127 99 105
-46.250000 42.750000 -1927.589966 130 102 107
-45.671875 42.750000 -1927.399536 133 104 109
-45.093750 42.750000 -1926.434692 137 107 112
-44.515625 42.750000 -1925.776733 143 112 119
-43.937500 42.750000 -1925.175171 147 113 122
-43.359375 42.750000 -1924.503174 147 115 123
-42.781250 42.750000 -1924.033081 146 114 122
-42.203125 42.750000 -1923.469360 145 115 121
-41.625000 42.750000 -1923.365112 146 116 119
-41.046875 42.750000 -1923.211060 148 117 122
-40.468750 42.750000 -1922.858154 151 120 126
-39.890625 42.750000 -1922.609375 152 122 128
-39.312500 42.750000 -1922.246826 155 127 132
-38.734375 42.750000 -1921.900879 155 125 132
-38.156250 42.750000 -1921.428101 152 121 131
-37.578125 42.750000 -1921.152832 147 116 127
-37.000000 42.750000 -1920.442993 143 111 122
-36.421875 42.750000 -1919.514038 140 108 119
-35.843750 42.750000 -1918.801758 138 105 116
-35.265625 42.750000 -1917.352783 135 102 114
-34.687500 42.750000 -1916.876953 132 101 114
-34.109375 42.750000 -1916.415161 131 100 112
-33.531250 42.750000 -1915.617676 130 98 111
-32.953125 42.750000 -1915.591064 131 99 112
-32.375000 42.750000 -1915.174805 131 99 112
-31.796875 42.750000 -1914.918213 129 97 111
-31.218750 42.750000 -1914.669067 125 93 108
-30.640625 42.750000 -1914.258545 119 86 102
-30.062500 42.750000 -1913.865845 115 83 99
-29.484375 42.750000 -1913.147095 119 87 104
-28.906250 42.750000 -1912.551514 125 93 112
-28.328125 42.750000 -1911.954102 131 99 118
-27.750000 42.750000 -1911.694702 130 100 117
-27.171875 42.750000 -1911.422241 123 92 110
-26.593750 42.750000 -1911.327637 117 86 106
-26.015625 42.750000 -1911.189575 113 83 102
-25.437500 42.750000 -1911.313721 116 88 106
-24.859375 42.750000 -1911.387817 123 96 115
-24.281250 42.750000 -1911.396484 124 96 115
-23.703125 42.750000 -1911.133179 123 95 115
-23.125000 42.750000 -1911.434326 118 91 111
-22.546875 42.750000 -1911.736206 120 93 114
-21.968750 42.750000 -1911.155884 120 98 122
-21.390625 42.750000 -1911.069092 128 107 130
-20.812500 42.750000 -1910.376465 127 107 132
-20.234375 42.750000 -1910.384399 131 111 137
-19.656250 42.750000 -1909.704712 133 115 141
-19.078125 42.750000 -1909.240356 132 115 141
-18.500000 42.750000 -1908.868042 139 122 146
-17.921875 42.750000 -1908.840698 137 118 142
-17.343750 42.750000 -1908.794434 140 115 139
-16.765625 42.750000 -1908.831177 142 117 142
-16.187500 42.750000 -1908.968628 147 120 143
-15.609375 42.750000 -1908.885498 152 125 148
-15.031250 42.750000 -1909.291992 153 122 144
-14.453125 42.750000 -1909.522583 149 117 140
-13.875000 42.750000 -1909.527710 147 114 136
-13.296875 42.750000 -1909.431030 147 114 135
-12.718750 42.750000 -1909.516113 146 113 133
-12.140625 42.750000 -1909.342407 146 113 133
-11.562500 42.750000 -1908.620850 141 105 128
-10.984375 42.750000 -1908.344116 131 97 119
-10.406250 42.750000 -1907.794067 126 90 115
-9.828125 42.750000 -1907.188110 118 83 108
-9.250000 42.750000 -1906.897217 123 88 109
-8.671875 42.750000 -1906.267334 123 88 108
-8.093750 42.750000 -1904.787109 124 88 105
-7.515625 42.750000 -1903.838257 125 88 105
-6.937500 42.750000 -1902.473267 128 92 106
-6.359375 42.750000 -1902.345947 131 94 109
-5.781250 42.750000 -1901.310913 143 102 116
-5.203125 42.750000 -1900.369019 149 108 122
-4.625000 42.750000 -1899.462280 163 120 135
-4.046875 42.750000 -1898.673096 174 130 145
-3.468750 42.750000 -1898.705200 187 141 157
-2.890625 42.750000 -1898.393555 193 147 162
-2.312500 42.750000 -1898.210938 201 155 173
-1.734375 42.750000 -1898.009155 208 162 180
-1.156250 42.750000 -1898.757324 214 168 183
-0.578125 42.750000 -1898.377441 214 168 183
0.000000 42.750000 -1898.295410 211 165 183
0.578125 42.750000 -1898.172241 209 163 181
1.156250 42.750000 -1898.155640 206 159 177
1.734375 42.750000 -1898.250000 204 158 176
2.312500 42.750000 -1898.341187 202 156 176
2.890625 42.750000 -1898.480469 196 150 170
3.468750 42.750000 -1899.021729 188 144 163
4.046875 42.750000 -1899.699463 180 135 155
4.625000 42.750000 -1898.549194 168 131 148
5.203125 42.750000 -1901.340332 162 125 142
5.781250 42.750000 -1903.252930 156 120 134
6.359375 42.750000 -1905.209351 156 120 134
6.937500 42.750000 -1906.342041 155 118 133
7.515625 42.750000 -1907.163330 157 121 136
8.093750 42.750000 -1907.796143 153 118 137
8.671875 42.750000 -1908.488159 151 116 135
9.250000 42.750000 -1909.077026 153 119 139
9.828125 42.750000 -1909.467896 152 119 139
10.406250 42.750000 -1909.710571 152 121 140
10.984375 42.750000 -1909.557983 150 120 139
11.562500 42.750000 -1909.612427 142 111 133
12.140625 42.750000 -1909.601318 140 109 131
12.718750 42.750000 -1909.230103 137 107 128
13.296875 42.750000 -1909.065552 134 104 125
13.875000 42.750000 -1908.875366 131 101 122
14.453125 42.750000 -1908.603394 127 97 118
15.031250 42.750000 -1908.605225 132 102 123
15.609375 42.750000 -1908.799805 141 111 132
16.187500 42.750000 -1908.479248 144 117 141
16.765625 42.750000 -1908.359131 138 111 136
17.343750 42.750000 -1908.373047 124 102 127
17.921875 42.750000 -1908.256836 116 96 121
18.500000 42.750000 -1908.893188 121 103 131
19.078125 42.750000 -1909.144043 126 107 136
19.656250 42.750000 -1909.392700 125 108 136
20.234375 42.750000 -1909.723633 121 105 134
20.812500 42.750000 -1909.964111 119 103 133
21.390625 42.750000 -1910.667847 127 110 141
21.968750 42.750000 -1910.964111 126 108 141
22.546875 42.750000 -1910.708130 123 104 138
23.125000 42.750000 -1910.774292 118 101 132
23.703125 42.750000 -1910.813110 123 107 137
24.281250 42.750000 -1910.805664 134 117 147
24.859375 42.750000 -1911.005127 134 116 147
25.437500 42.750000 -1910.972168 132 113 141
26.015625 42.750000 -1911.076904 132 113 139
26.593750 42.750000 -1911.171143 141 118 144
27.171875 42.750000 -1911.069336 146 121 147
27.750000 42.750000 -1911.334351 148 122 144
